ncols        384
nrows        44
xllcorner    -72.75
yllcorner    -36.115234375
cellsize     0.001953125000
NODATA_value -9999
-9999 -9999 -9999 -9999 -9999 -9999 -9999 -9999 -9999 -9999 -9999 -9999 -9999 -9999 -9999 -9999 -9999 -9999 -9999 -9999 -9999 -9999 -9999 -9999 -9999 -9999 -9999 -9999 -9999 -9999 -9999 -9999 -9999 -9999 -9999 -9999 -9999 -9999 -9999 -9999 -9999 -9999 -9999 -9999 -9999 -9999 -9999 -9999 -9999 -9999 -9999 -9999 -9999 -9999 -9999 -9999 -9999 -9999 -9999 -9999 -9999 -9999 -9999 -9999 -9999 -9999 -9999 -9999 -9999 -9999 -9999 -9999 -9999 -9999 -9999 -9999 -9999 -9999 -9999 -9999 -9999 -9999 -9999 -9999 -9999 -9999 -9999 -9999 -9999 -9999 -9999 -9999 -9999 -9999 -9999 -9999 -9999 -9999 -9999 -9999 -9999 -9999 -9999 -9999 -9999 -9999 -9999 -9999 -9999 -9999 -9999 -9999 -9999 -9999 -9999 -9999 -9999 -9999 -9999 -9999 -9999 683 689 615 549 510 464 413 392 387 356 304 276 272 263 246 222 222 208 188 192 193 196 181 173 167 158 156 156 157 159 168 160 160 161 178 194 205 213 223 225 230 218 199 188 195 206 197 175 175 172 168 179 175 152 150 149 148 152 152 154 150 146 155 158 158 165 179 187 183 175 182 189 189 190 184 189 184 181 181 178 178 175 171 172 180 178 172 167 163 160 159 159 162 156 151 145 145 144 149 156 164 169 173 172 177 183 176 175 180 183 185 181 181 177 178 170 178 180 181 184 181 176 183 172 168 147 138 139 139 136 135 138 138 139 140 144 148 150 149 147 148 159 170 185 185 200 206 213 223 235 236 243 259 251 235 215 201 199 210 209 209 195 180 169 163 152 146 144 143 142 142 142 139 137 136 137 137 136 137 137 136 135 134 134 134 136 136 134 135 134 133 135 135 135 135 135 135 135 135 136 135 135 135 135 136 136 135 135 135 136 -9999 -9999 -9999 -9999 -9999 -9999 -9999 -9999 -9999 -9999 -9999 -9999 -9999 -9999 -9999 -9999 -9999 -9999 -9999 -9999 -9999 -9999 -9999 -9999 -9999 -9999 -9999 -9999 -9999 -9999 -9999 -9999 -9999 -9999 -9999 -9999 -9999 -9999 -9999 -9999 -9999 -9999 -9999 -9999 -9999 -9999 -9999 -9999 -9999 -9999 -9999 -9999 -9999
-9999 -9999 -9999 -9999 -9999 -9999 -9999 -9999 -9999 -9999 -9999 -9999 -9999 -9999 -9999 -9999 -9999 -9999 -9999 -9999 -9999 -9999 -9999 -9999 -9999 -9999 -9999 -9999 -9999 -9999 -9999 -9999 -9999 -9999 -9999 -9999 -9999 -9999 -9999 -9999 -9999 -9999 -9999 -9999 -9999 -9999 -9999 -9999 -9999 -9999 -9999 -9999 -9999 -9999 -9999 -9999 -9999 -9999 -9999 -9999 -9999 -9999 -9999 -9999 -9999 -9999 -9999 -9999 -9999 -9999 -9999 -9999 -9999 -9999 -9999 -9999 -9999 -9999 -9999 -9999 -9999 -9999 -9999 -9999 -9999 -9999 -9999 -9999 -9999 -9999 -9999 -9999 -9999 -9999 -9999 -9999 -9999 -9999 -9999 -9999 -9999 -9999 -9999 -9999 -9999 -9999 -9999 -9999 -9999 -9999 -9999 -9999 -9999 -9999 -9999 -9999 -9999 -9999 -9999 -9999 694 694 667 622 580 517 473 430 392 360 313 307 314 291 256 244 221 221 205 198 207 194 182 173 181 182 161 156 157 156 156 157 156 156 156 165 184 207 222 220 207 208 197 187 168 169 197 204 167 167 161 156 152 150 149 152 153 153 152 154 153 148 145 159 169 169 166 168 175 174 175 175 178 184 191 191 190 188 188 186 184 184 182 177 175 183 178 175 172 166 161 158 157 161 159 152 145 145 145 146 148 155 159 160 165 176 180 169 169 171 173 173 177 177 167 162 160 169 168 166 168 170 164 167 162 149 137 136 135 135 135 136 137 138 140 141 143 147 150 153 151 147 152 160 170 170 176 184 192 201 217 229 247 257 268 252 227 215 210 203 192 192 182 170 161 156 151 148 149 145 145 145 144 141 139 138 139 139 139 139 139 138 137 136 136 135 135 135 135 136 136 134 134 134 135 136 136 135 136 135 137 136 136 136 136 135 135 136 135 -9999 -9999 -9999 -9999 -9999 -9999 -9999 -9999 -9999 -9999 -9999 -9999 -9999 -9999 -9999 -9999 -9999 -9999 -9999 -9999 -9999 -9999 -9999 -9999 -9999 -9999 -9999 -9999 -9999 -9999 -9999 -9999 -9999 -9999 -9999 -9999 -9999 -9999 -9999 -9999 -9999 -9999 -9999 -9999 -9999 -9999 -9999 -9999 -9999 -9999 -9999 -9999 -9999 -9999 -9999
-9999 -9999 -9999 -9999 -9999 -9999 -9999 -9999 -9999 -9999 -9999 -9999 -9999 -9999 -9999 -9999 -9999 -9999 -9999 -9999 -9999 -9999 -9999 -9999 -9999 -9999 -9999 -9999 -9999 -9999 -9999 -9999 -9999 -9999 -9999 -9999 -9999 -9999 -9999 -9999 -9999 -9999 -9999 -9999 -9999 -9999 -9999 -9999 -9999 -9999 -9999 -9999 -9999 -9999 -9999 -9999 -9999 -9999 -9999 -9999 -9999 -9999 -9999 -9999 -9999 -9999 -9999 -9999 -9999 -9999 -9999 -9999 -9999 -9999 -9999 -9999 -9999 -9999 -9999 -9999 -9999 -9999 -9999 -9999 -9999 -9999 -9999 -9999 -9999 -9999 -9999 -9999 -9999 -9999 -9999 -9999 -9999 -9999 -9999 -9999 -9999 -9999 -9999 -9999 -9999 -9999 -9999 -9999 -9999 -9999 -9999 -9999 -9999 -9999 -9999 -9999 -9999 -9999 638 637 646 646 631 586 532 485 450 408 384 357 310 281 284 282 293 265 223 223 226 219 227 207 186 185 193 186 169 160 160 159 159 157 156 156 155 167 179 184 204 198 188 193 177 174 161 157 157 155 151 151 151 148 151 154 155 167 167 167 156 164 152 146 149 162 167 167 160 165 167 171 175 172 170 179 185 183 181 181 184 181 184 184 185 184 187 189 178 170 165 159 154 154 155 159 164 150 145 145 146 150 150 155 159 158 165 172 168 158 156 159 163 167 166 166 168 161 153 158 159 155 154 157 153 150 149 141 136 135 135 135 136 137 136 138 141 143 145 149 152 154 155 151 151 152 157 157 161 167 171 178 187 195 206 231 253 268 254 247 209 191 177 177 168 161 156 153 152 154 154 149 147 147 146 143 141 140 140 140 141 142 141 139 138 137 137 137 136 136 136 136 137 136 135 135 136 136 137 137 137 136 136 135 136 137 137 136 136 137 136 -9999 -9999 -9999 -9999 -9999 -9999 -9999 -9999 -9999 -9999 -9999 -9999 -9999 -9999 -9999 -9999 -9999 -9999 -9999 -9999 -9999 -9999 -9999 -9999 -9999 -9999 -9999 -9999 -9999 -9999 -9999 -9999 -9999 -9999 -9999 -9999 -9999 -9999 -9999 -9999 -9999 -9999 -9999 -9999 -9999 -9999 -9999 -9999 -9999 -9999 -9999 -9999 -9999 -9999 -9999
-9999 -9999 -9999 -9999 -9999 -9999 -9999 -9999 -9999 -9999 -9999 -9999 -9999 -9999 -9999 -9999 -9999 -9999 -9999 -9999 -9999 -9999 -9999 -9999 -9999 -9999 -9999 -9999 -9999 -9999 -9999 -9999 -9999 -9999 -9999 -9999 -9999 -9999 -9999 -9999 -9999 -9999 -9999 -9999 -9999 -9999 -9999 -9999 -9999 -9999 -9999 -9999 -9999 -9999 -9999 -9999 -9999 -9999 -9999 -9999 -9999 -9999 -9999 -9999 -9999 -9999 -9999 -9999 -9999 -9999 -9999 -9999 -9999 -9999 -9999 -9999 -9999 -9999 -9999 -9999 -9999 -9999 -9999 -9999 -9999 -9999 -9999 -9999 -9999 -9999 -9999 -9999 -9999 -9999 -9999 -9999 -9999 -9999 -9999 -9999 -9999 -9999 -9999 -9999 -9999 -9999 -9999 -9999 -9999 -9999 -9999 -9999 -9999 -9999 -9999 -9999 -9999 617 607 597 602 602 567 538 483 454 405 349 328 320 307 276 252 267 261 239 231 231 243 235 229 210 191 196 202 192 178 171 172 170 173 160 155 155 155 155 157 161 178 177 168 176 171 162 153 152 157 159 154 154 154 161 168 169 168 170 169 165 160 167 153 147 149 155 158 158 168 178 176 172 175 175 168 170 175 176 171 175 177 172 177 177 178 180 187 185 173 167 163 154 150 151 154 163 161 147 146 146 148 159 155 155 158 159 165 168 165 155 154 158 163 162 159 159 159 159 154 149 153 149 147 147 144 143 141 136 135 136 137 137 136 136 136 138 142 147 150 152 158 159 160 161 162 158 163 163 178 184 191 187 182 196 212 250 273 296 301 263 212 190 179 179 171 165 164 159 160 163 159 152 150 151 149 145 144 143 144 144 145 145 144 143 140 139 138 137 137 137 137 136 137 136 136 136 136 136 137 138 137 137 136 136 136 136 136 136 137 137 136 -9999 -9999 -9999 -9999 -9999 -9999 -9999 -9999 -9999 -9999 -9999 -9999 -9999 -9999 -9999 -9999 -9999 -9999 -9999 -9999 -9999 -9999 -9999 -9999 -9999 -9999 -9999 -9999 -9999 -9999 -9999 -9999 -9999 -9999 -9999 -9999 -9999 -9999 -9999 -9999 -9999 -9999 -9999 -9999 -9999 -9999 -9999 -9999 -9999 -9999 -9999 -9999 -9999 -9999 -9999
-9999 -9999 -9999 -9999 -9999 -9999 -9999 -9999 -9999 -9999 -9999 -9999 -9999 -9999 -9999 -9999 -9999 -9999 -9999 -9999 -9999 -9999 -9999 -9999 -9999 -9999 -9999 -9999 -9999 -9999 -9999 -9999 -9999 -9999 -9999 -9999 -9999 -9999 -9999 -9999 -9999 -9999 -9999 -9999 -9999 -9999 -9999 -9999 -9999 -9999 -9999 -9999 -9999 -9999 -9999 -9999 -9999 -9999 -9999 -9999 -9999 -9999 -9999 -9999 -9999 -9999 -9999 -9999 -9999 -9999 -9999 -9999 -9999 -9999 -9999 -9999 -9999 -9999 -9999 -9999 -9999 -9999 -9999 -9999 -9999 -9999 -9999 -9999 -9999 -9999 -9999 -9999 -9999 -9999 -9999 -9999 -9999 -9999 -9999 -9999 -9999 -9999 -9999 -9999 -9999 -9999 -9999 -9999 -9999 -9999 -9999 -9999 -9999 -9999 -9999 -9999 -9999 602 580 559 556 556 489 475 441 406 376 310 286 271 267 248 229 239 239 237 238 238 231 217 200 197 186 191 199 199 190 183 190 187 182 167 157 157 155 153 152 153 153 155 157 155 155 151 150 151 168 171 169 169 168 166 170 171 170 170 168 163 168 166 153 149 152 163 173 173 184 186 182 177 170 169 163 164 164 163 165 167 170 173 178 178 178 180 188 180 164 156 153 151 151 150 151 164 160 148 146 146 151 162 159 156 157 159 161 163 160 154 148 155 160 159 151 151 150 150 151 145 146 148 144 143 140 139 138 136 137 137 138 138 136 137 137 137 143 151 157 157 158 162 166 168 175 174 168 168 169 184 198 205 197 203 225 256 300 326 327 271 218 208 204 204 195 179 170 166 170 168 162 156 155 155 152 148 147 147 148 148 149 149 147 146 144 141 141 140 138 139 139 138 138 137 136 136 137 137 137 137 137 137 136 136 136 136 136 137 -9999 -9999 -9999 -9999 -9999 -9999 -9999 -9999 -9999 -9999 -9999 -9999 -9999 -9999 -9999 -9999 -9999 -9999 -9999 -9999 -9999 -9999 -9999 -9999 -9999 -9999 -9999 -9999 -9999 -9999 -9999 -9999 -9999 -9999 -9999 -9999 -9999 -9999 -9999 -9999 -9999 -9999 -9999 -9999 -9999 -9999 -9999 -9999 -9999 -9999 -9999 -9999 -9999 -9999 -9999 -9999 -9999 -9999
-9999 -9999 -9999 -9999 -9999 -9999 -9999 -9999 -9999 -9999 -9999 -9999 -9999 -9999 -9999 -9999 -9999 -9999 -9999 -9999 -9999 -9999 -9999 -9999 -9999 -9999 -9999 -9999 -9999 -9999 -9999 -9999 -9999 -9999 -9999 -9999 -9999 -9999 -9999 -9999 -9999 -9999 -9999 -9999 -9999 -9999 -9999 -9999 -9999 -9999 -9999 -9999 -9999 -9999 -9999 -9999 -9999 -9999 -9999 -9999 -9999 -9999 -9999 -9999 -9999 -9999 -9999 -9999 -9999 -9999 -9999 -9999 -9999 -9999 -9999 -9999 -9999 -9999 -9999 -9999 -9999 -9999 -9999 -9999 -9999 -9999 -9999 -9999 -9999 -9999 -9999 -9999 -9999 -9999 -9999 -9999 -9999 -9999 -9999 -9999 -9999 -9999 -9999 -9999 -9999 -9999 -9999 -9999 -9999 -9999 -9999 -9999 -9999 -9999 -9999 -9999 -9999 607 605 550 512 512 433 401 377 365 342 323 314 287 286 265 225 216 233 226 229 229 233 230 201 180 179 198 198 194 195 196 204 207 199 175 164 164 159 157 154 153 151 152 151 151 150 149 151 155 167 172 174 174 174 172 174 175 171 170 170 169 169 165 149 148 154 159 162 162 170 182 183 181 172 169 166 163 160 169 182 180 172 165 168 168 170 168 172 159 154 152 153 154 154 151 150 158 154 147 148 148 158 162 161 162 169 169 166 163 158 152 149 155 151 150 146 146 145 144 143 142 141 142 142 141 139 137 136 136 136 138 141 141 139 137 138 136 138 149 155 154 166 169 171 176 179 186 183 183 178 178 188 203 219 213 219 251 311 353 333 290 280 271 247 247 213 189 179 174 175 169 164 159 159 160 158 154 154 155 153 153 154 154 152 150 150 147 145 143 142 140 139 139 139 139 138 138 137 137 137 138 137 137 137 137 136 136 -9999 -9999 -9999 -9999 -9999 -9999 -9999 -9999 -9999 -9999 -9999 -9999 -9999 -9999 -9999 -9999 -9999 -9999 -9999 -9999 -9999 -9999 -9999 -9999 -9999 -9999 -9999 -9999 -9999 -9999 -9999 -9999 -9999 -9999 -9999 -9999 -9999 -9999 -9999 -9999 -9999 -9999 -9999 -9999 -9999 -9999 -9999 -9999 -9999 -9999 -9999 -9999 -9999 -9999 -9999 -9999 -9999 -9999 -9999 -9999
-9999 -9999 -9999 -9999 -9999 -9999 -9999 -9999 -9999 -9999 -9999 -9999 -9999 -9999 -9999 -9999 -9999 -9999 -9999 -9999 -9999 -9999 -9999 -9999 -9999 -9999 -9999 -9999 -9999 -9999 -9999 -9999 -9999 -9999 -9999 -9999 -9999 -9999 -9999 -9999 -9999 -9999 -9999 -9999 -9999 -9999 -9999 -9999 -9999 -9999 -9999 -9999 -9999 -9999 -9999 -9999 -9999 -9999 -9999 -9999 -9999 -9999 -9999 -9999 -9999 -9999 -9999 -9999 -9999 -9999 -9999 -9999 -9999 -9999 -9999 -9999 -9999 -9999 -9999 -9999 -9999 -9999 -9999 -9999 -9999 -9999 -9999 -9999 -9999 -9999 -9999 -9999 -9999 -9999 -9999 -9999 -9999 -9999 -9999 -9999 -9999 -9999 -9999 -9999 -9999 -9999 -9999 -9999 -9999 -9999 -9999 -9999 -9999 -9999 -9999 -9999 -9999 595 575 503 439 439 450 441 431 434 403 402 348 313 292 270 244 214 202 195 200 200 198 206 191 176 181 202 187 189 201 195 192 200 197 184 171 171 168 170 171 159 151 151 150 150 149 149 163 170 172 174 177 177 186 181 180 178 179 177 176 176 175 168 150 148 153 158 162 162 165 172 174 177 175 168 168 165 159 165 182 178 160 154 153 153 155 153 154 152 154 159 160 160 157 152 149 149 149 148 153 153 163 162 161 162 170 175 169 160 154 153 148 146 144 142 141 141 142 141 140 139 139 139 139 139 138 137 137 136 137 139 142 142 141 139 140 136 136 137 142 154 165 166 170 178 182 185 191 191 199 197 201 212 231 247 241 264 314 354 365 366 358 297 244 244 222 206 187 182 176 171 169 163 164 165 164 163 164 162 160 160 161 161 161 166 163 156 153 152 151 142 141 141 140 140 139 139 138 137 138 137 137 137 136 136 136 -9999 -9999 -9999 -9999 -9999 -9999 -9999 -9999 -9999 -9999 -9999 -9999 -9999 -9999 -9999 -9999 -9999 -9999 -9999 -9999 -9999 -9999 -9999 -9999 -9999 -9999 -9999 -9999 -9999 -9999 -9999 -9999 -9999 -9999 -9999 -9999 -9999 -9999 -9999 -9999 -9999 -9999 -9999 -9999 -9999 -9999 -9999 -9999 -9999 -9999 -9999 -9999 -9999 -9999 -9999 -9999 -9999 -9999 -9999 -9999 -9999
-9999 -9999 -9999 -9999 -9999 -9999 -9999 -9999 -9999 -9999 -9999 -9999 -9999 -9999 -9999 -9999 -9999 -9999 -9999 -9999 -9999 -9999 -9999 -9999 -9999 -9999 -9999 -9999 -9999 -9999 -9999 -9999 -9999 -9999 -9999 -9999 -9999 -9999 -9999 -9999 -9999 -9999 -9999 -9999 -9999 -9999 -9999 -9999 -9999 -9999 -9999 -9999 -9999 -9999 -9999 -9999 -9999 -9999 -9999 -9999 -9999 -9999 -9999 -9999 -9999 -9999 -9999 -9999 -9999 -9999 -9999 -9999 -9999 -9999 -9999 -9999 -9999 -9999 -9999 -9999 -9999 -9999 -9999 -9999 -9999 -9999 -9999 -9999 -9999 -9999 -9999 -9999 -9999 -9999 -9999 -9999 -9999 -9999 -9999 -9999 -9999 -9999 -9999 -9999 -9999 -9999 -9999 -9999 -9999 -9999 -9999 -9999 -9999 -9999 -9999 -9999 -9999 592 551 507 460 460 527 540 519 486 480 446 381 332 312 293 241 212 196 200 201 201 183 174 172 169 170 171 170 186 192 185 178 179 176 170 166 166 162 162 163 153 150 150 149 149 149 149 162 173 183 192 189 189 195 194 191 185 189 193 197 199 192 172 151 150 148 155 161 161 165 170 172 174 173 170 166 163 159 158 158 157 155 154 155 155 155 156 155 158 163 163 162 159 157 150 149 149 150 152 158 158 162 162 160 160 161 155 150 146 144 145 143 142 143 141 141 141 140 140 140 140 139 138 138 138 138 137 137 136 137 139 143 143 142 141 143 136 135 137 137 142 150 156 163 163 167 175 191 191 213 225 228 235 243 262 269 284 298 310 324 339 347 315 277 277 241 219 202 191 184 177 172 168 169 171 173 173 173 176 173 173 170 171 170 186 195 175 168 159 151 145 144 143 142 141 141 141 140 138 138 137 137 137 137 137 137 -9999 -9999 -9999 -9999 -9999 -9999 -9999 -9999 -9999 -9999 -9999 -9999 -9999 -9999 -9999 -9999 -9999 -9999 -9999 -9999 -9999 -9999 -9999 -9999 -9999 -9999 -9999 -9999 -9999 -9999 -9999 -9999 -9999 -9999 -9999 -9999 -9999 -9999 -9999 -9999 -9999 -9999 -9999 -9999 -9999 -9999 -9999 -9999 -9999 -9999 -9999 -9999 -9999 -9999 -9999 -9999 -9999 -9999 -9999 -9999 -9999
-9999 -9999 -9999 -9999 -9999 -9999 -9999 -9999 -9999 -9999 -9999 -9999 -9999 -9999 -9999 -9999 -9999 -9999 -9999 -9999 -9999 -9999 -9999 -9999 -9999 -9999 -9999 -9999 -9999 -9999 -9999 -9999 -9999 -9999 -9999 -9999 -9999 -9999 -9999 -9999 -9999 -9999 -9999 -9999 -9999 -9999 -9999 -9999 -9999 -9999 -9999 -9999 -9999 -9999 -9999 -9999 -9999 -9999 -9999 -9999 -9999 -9999 -9999 -9999 -9999 -9999 -9999 -9999 -9999 -9999 -9999 -9999 -9999 -9999 -9999 -9999 -9999 -9999 -9999 -9999 -9999 -9999 -9999 -9999 -9999 -9999 -9999 -9999 -9999 -9999 -9999 -9999 -9999 -9999 -9999 -9999 -9999 -9999 -9999 -9999 -9999 -9999 -9999 -9999 -9999 -9999 -9999 -9999 -9999 -9999 -9999 -9999 -9999 -9999 -9999 -9999 598 592 551 507 460 460 527 540 519 486 480 446 381 332 312 293 241 212 196 200 201 201 183 174 172 169 170 171 170 186 192 185 178 179 176 170 166 166 162 162 163 153 150 150 149 149 149 149 162 173 183 192 189 189 195 194 191 185 189 193 197 199 192 172 151 150 148 155 161 161 165 170 172 174 173 170 166 163 159 158 158 157 155 154 155 155 155 156 155 158 163 163 162 159 157 150 149 149 150 152 158 158 162 162 160 160 161 155 150 146 144 145 143 142 143 141 141 141 140 140 140 140 139 138 138 138 138 137 137 136 137 139 143 143 142 141 143 136 135 137 137 142 150 156 163 163 167 175 191 191 213 225 228 235 243 262 269 284 298 310 324 339 347 315 277 277 241 219 202 191 184 177 172 168 169 171 173 173 173 176 173 173 170 171 170 186 195 175 168 159 151 145 144 143 142 141 141 141 140 138 138 137 137 137 137 137 137 -9999 -9999 -9999 -9999 -9999 -9999 -9999 -9999 -9999 -9999 -9999 -9999 -9999 -9999 -9999 -9999 -9999 -9999 -9999 -9999 -9999 -9999 -9999 -9999 -9999 -9999 -9999 -9999 -9999 -9999 -9999 -9999 -9999 -9999 -9999 -9999 -9999 -9999 -9999 -9999 -9999 -9999 -9999 -9999 -9999 -9999 -9999 -9999 -9999 -9999 -9999 -9999 -9999 -9999 -9999 -9999 -9999 -9999 -9999 -9999 -9999
-9999 -9999 -9999 -9999 -9999 -9999 -9999 -9999 -9999 -9999 -9999 -9999 -9999 -9999 -9999 -9999 -9999 -9999 -9999 -9999 -9999 -9999 -9999 -9999 -9999 -9999 -9999 -9999 -9999 -9999 -9999 -9999 -9999 -9999 -9999 -9999 -9999 -9999 -9999 -9999 -9999 -9999 -9999 -9999 -9999 -9999 -9999 -9999 -9999 -9999 -9999 -9999 -9999 -9999 -9999 -9999 -9999 -9999 -9999 -9999 -9999 -9999 -9999 -9999 -9999 -9999 -9999 -9999 -9999 -9999 -9999 -9999 -9999 -9999 -9999 -9999 -9999 -9999 -9999 -9999 -9999 -9999 -9999 -9999 -9999 -9999 -9999 -9999 -9999 -9999 -9999 -9999 -9999 -9999 -9999 -9999 -9999 -9999 -9999 -9999 -9999 -9999 -9999 -9999 -9999 -9999 -9999 -9999 -9999 -9999 -9999 -9999 -9999 -9999 -9999 -9999 611 589 574 547 491 491 537 594 604 573 529 473 434 391 360 306 248 213 195 189 189 189 198 191 183 166 162 166 165 171 171 175 175 168 164 161 160 160 154 152 150 149 150 150 149 148 149 156 170 177 185 198 203 203 208 207 203 196 200 208 205 199 176 157 149 153 151 149 157 157 164 167 170 169 166 164 162 159 159 160 156 157 157 157 160 160 164 165 162 165 164 162 156 153 151 149 149 150 155 157 160 160 162 161 161 158 159 158 151 149 149 146 143 142 142 141 142 142 141 141 140 141 140 139 139 138 137 137 137 137 138 140 143 143 142 138 137 137 136 138 139 143 148 158 158 159 169 179 194 194 211 227 236 241 241 244 246 247 251 254 259 289 334 363 325 325 278 247 224 200 190 183 180 174 176 180 184 185 189 210 202 202 182 182 186 206 225 202 184 162 152 149 147 146 144 143 142 142 142 140 139 137 138 138 137 -9999 -9999 -9999 -9999 -9999 -9999 -9999 -9999 -9999 -9999 -9999 -9999 -9999 -9999 -9999 -9999 -9999 -9999 -9999 -9999 -9999 -9999 -9999 -9999 -9999 -9999 -9999 -9999 -9999 -9999 -9999 -9999 -9999 -9999 -9999 -9999 -9999 -9999 -9999 -9999 -9999 -9999 -9999 -9999 -9999 -9999 -9999 -9999 -9999 -9999 -9999 -9999 -9999 -9999 -9999 -9999 -9999 -9999 -9999 -9999 -9999 -9999 -9999
-9999 -9999 -9999 -9999 -9999 -9999 -9999 -9999 -9999 -9999 -9999 -9999 -9999 -9999 -9999 -9999 -9999 -9999 -9999 -9999 -9999 -9999 -9999 -9999 -9999 -9999 -9999 -9999 -9999 -9999 -9999 -9999 -9999 -9999 -9999 -9999 -9999 -9999 -9999 -9999 -9999 -9999 -9999 -9999 -9999 -9999 -9999 -9999 -9999 -9999 -9999 -9999 -9999 -9999 -9999 -9999 -9999 -9999 -9999 -9999 -9999 -9999 -9999 -9999 -9999 -9999 -9999 -9999 -9999 -9999 -9999 -9999 -9999 -9999 -9999 -9999 -9999 -9999 -9999 -9999 -9999 -9999 -9999 -9999 -9999 -9999 -9999 -9999 -9999 -9999 -9999 -9999 -9999 -9999 -9999 -9999 -9999 -9999 -9999 -9999 -9999 -9999 -9999 -9999 -9999 -9999 -9999 -9999 -9999 -9999 -9999 -9999 -9999 -9999 -9999 -9999 614 583 582 565 518 518 552 614 646 613 554 507 458 401 344 294 240 216 212 197 196 196 210 195 176 165 158 163 160 155 156 162 171 162 159 158 157 157 150 150 150 149 149 150 150 152 155 163 169 175 184 190 199 199 202 192 198 202 207 206 195 180 155 151 153 155 158 153 154 154 161 165 167 166 165 163 159 161 167 166 158 157 159 160 163 163 167 167 166 164 162 158 159 158 152 149 149 149 151 153 155 155 157 160 161 161 159 156 152 157 157 154 152 145 144 144 143 143 144 145 144 144 143 141 140 139 138 137 139 139 141 143 142 142 138 137 137 138 140 139 139 141 145 148 151 157 169 180 196 196 206 218 218 227 224 211 209 208 211 217 243 285 342 388 385 385 336 276 234 215 199 193 184 180 184 187 193 208 226 232 230 230 205 202 212 218 246 227 189 169 158 155 151 149 147 146 144 144 144 142 140 139 138 -9999 -9999 -9999 -9999 -9999 -9999 -9999 -9999 -9999 -9999 -9999 -9999 -9999 -9999 -9999 -9999 -9999 -9999 -9999 -9999 -9999 -9999 -9999 -9999 -9999 -9999 -9999 -9999 -9999 -9999 -9999 -9999 -9999 -9999 -9999 -9999 -9999 -9999 -9999 -9999 -9999 -9999 -9999 -9999 -9999 -9999 -9999 -9999 -9999 -9999 -9999 -9999 -9999 -9999 -9999 -9999 -9999 -9999 -9999 -9999 -9999 -9999 -9999 -9999 -9999
-9999 -9999 -9999 -9999 -9999 -9999 -9999 -9999 -9999 -9999 -9999 -9999 -9999 -9999 -9999 -9999 -9999 -9999 -9999 -9999 -9999 -9999 -9999 -9999 -9999 -9999 -9999 -9999 -9999 -9999 -9999 -9999 -9999 -9999 -9999 -9999 -9999 -9999 -9999 -9999 -9999 -9999 -9999 -9999 -9999 -9999 -9999 -9999 -9999 -9999 -9999 -9999 -9999 -9999 -9999 -9999 -9999 -9999 -9999 -9999 -9999 -9999 -9999 -9999 -9999 -9999 -9999 -9999 -9999 -9999 -9999 -9999 -9999 -9999 -9999 -9999 -9999 -9999 -9999 -9999 -9999 -9999 -9999 -9999 -9999 -9999 -9999 -9999 -9999 -9999 -9999 -9999 -9999 -9999 -9999 -9999 -9999 -9999 -9999 -9999 -9999 -9999 -9999 -9999 -9999 -9999 -9999 -9999 -9999 -9999 -9999 -9999 -9999 -9999 -9999 -9999 622 584 598 574 543 543 576 610 639 603 535 480 430 387 338 296 264 258 235 203 218 218 223 195 175 160 155 155 154 153 152 153 159 158 159 155 152 152 150 150 150 149 149 150 150 155 160 165 177 184 185 178 182 182 184 181 191 189 191 194 181 164 149 158 163 163 170 163 153 153 165 169 171 169 168 164 159 165 168 166 158 157 161 161 164 164 168 166 165 162 160 161 158 155 150 149 152 150 150 152 155 155 158 162 161 160 158 156 157 158 160 157 154 146 151 153 150 150 154 154 151 150 147 143 140 140 139 138 139 140 141 143 139 139 137 137 137 138 139 140 142 142 144 145 149 158 165 168 177 177 188 190 197 202 201 189 185 189 196 210 235 282 339 390 418 418 360 301 256 232 213 201 191 187 191 196 202 216 245 277 281 281 254 235 258 264 274 252 206 182 170 162 156 153 150 149 146 146 144 143 141 140 -9999 -9999 -9999 -9999 -9999 -9999 -9999 -9999 -9999 -9999 -9999 -9999 -9999 -9999 -9999 -9999 -9999 -9999 -9999 -9999 -9999 -9999 -9999 -9999 -9999 -9999 -9999 -9999 -9999 -9999 -9999 -9999 -9999 -9999 -9999 -9999 -9999 -9999 -9999 -9999 -9999 -9999 -9999 -9999 -9999 -9999 -9999 -9999 -9999 -9999 -9999 -9999 -9999 -9999 -9999 -9999 -9999 -9999 -9999 -9999 -9999 -9999 -9999 -9999 -9999 -9999
-9999 -9999 -9999 -9999 -9999 -9999 -9999 -9999 -9999 -9999 -9999 -9999 -9999 -9999 -9999 -9999 -9999 -9999 -9999 -9999 -9999 -9999 -9999 -9999 -9999 -9999 -9999 -9999 -9999 -9999 -9999 -9999 -9999 -9999 -9999 -9999 -9999 -9999 -9999 -9999 -9999 -9999 -9999 -9999 -9999 -9999 -9999 -9999 -9999 -9999 -9999 -9999 -9999 -9999 -9999 -9999 -9999 -9999 -9999 -9999 -9999 -9999 -9999 -9999 -9999 -9999 -9999 -9999 -9999 -9999 -9999 -9999 -9999 -9999 -9999 -9999 -9999 -9999 -9999 -9999 -9999 -9999 -9999 -9999 -9999 -9999 -9999 -9999 -9999 -9999 -9999 -9999 -9999 -9999 -9999 -9999 -9999 -9999 -9999 -9999 -9999 -9999 -9999 -9999 -9999 -9999 -9999 -9999 -9999 -9999 -9999 -9999 -9999 -9999 -9999 -9999 619 591 600 598 560 560 568 592 611 610 548 493 438 386 332 291 260 246 222 227 225 225 197 179 168 159 155 153 153 152 151 152 152 154 157 153 151 151 151 150 150 150 149 149 151 154 166 168 171 174 178 173 172 172 169 178 184 176 171 171 161 156 153 174 176 172 171 166 155 155 157 172 178 170 166 162 161 166 166 161 159 159 161 164 166 166 167 166 163 158 156 155 153 152 150 149 151 150 151 150 153 153 160 161 161 160 159 161 160 157 158 158 157 153 149 157 157 157 159 160 160 157 150 144 142 142 141 141 140 139 139 137 136 136 136 137 137 137 139 140 141 142 144 146 148 151 153 156 160 160 166 169 178 175 173 175 182 194 210 225 229 258 307 378 429 429 400 349 305 268 239 210 199 198 211 210 215 227 248 287 340 340 335 291 282 320 320 300 240 201 184 173 163 158 153 151 148 -9999 -9999 -9999 -9999 -9999 -9999 -9999 -9999 -9999 -9999 -9999 -9999 -9999 -9999 -9999 -9999 -9999 -9999 -9999 -9999 -9999 -9999 -9999 -9999 -9999 -9999 -9999 -9999 -9999 -9999 -9999 -9999 -9999 -9999 -9999 -9999 -9999 -9999 -9999 -9999 -9999 -9999 -9999 -9999 -9999 -9999 -9999 -9999 -9999 -9999 -9999 -9999 -9999 -9999 -9999 -9999 -9999 -9999 -9999 -9999 -9999 -9999 -9999 -9999 -9999 -9999 -9999 -9999 -9999 -9999 -9999
-9999 -9999 -9999 -9999 -9999 -9999 -9999 -9999 -9999 -9999 -9999 -9999 -9999 -9999 -9999 -9999 -9999 -9999 -9999 -9999 -9999 -9999 -9999 -9999 -9999 -9999 -9999 -9999 -9999 -9999 -9999 -9999 -9999 -9999 -9999 -9999 -9999 -9999 -9999 -9999 -9999 -9999 -9999 -9999 -9999 -9999 -9999 -9999 -9999 -9999 -9999 -9999 -9999 -9999 -9999 -9999 -9999 -9999 -9999 -9999 -9999 -9999 -9999 -9999 -9999 -9999 -9999 -9999 -9999 -9999 -9999 -9999 -9999 -9999 -9999 -9999 -9999 -9999 -9999 -9999 -9999 -9999 -9999 -9999 -9999 -9999 -9999 -9999 -9999 -9999 -9999 -9999 -9999 -9999 -9999 -9999 -9999 -9999 -9999 -9999 -9999 -9999 -9999 -9999 -9999 -9999 -9999 -9999 -9999 -9999 -9999 -9999 -9999 -9999 -9999 634 625 603 614 600 572 572 582 608 615 591 548 501 456 402 368 316 263 237 233 252 220 220 189 172 161 156 154 152 152 152 152 152 150 151 151 151 151 151 150 150 150 152 152 154 155 158 166 171 172 170 168 168 160 160 158 159 163 155 152 153 152 160 171 176 176 176 173 167 160 160 157 165 171 168 163 161 163 168 164 160 159 160 163 166 168 168 167 161 157 154 153 152 151 151 150 150 152 153 153 153 152 152 156 159 159 159 159 160 160 159 158 158 157 156 151 156 157 157 158 159 160 157 150 147 146 148 147 145 144 143 138 138 137 137 137 137 137 136 138 139 142 142 145 146 149 150 153 156 159 159 160 163 165 167 170 178 189 202 221 257 275 263 297 349 409 409 447 411 353 294 249 224 213 211 239 235 233 274 292 344 398 398 406 359 322 344 361 324 289 244 207 187 170 161 162 160 151 -9999 -9999 -9999 -9999 -9999 -9999 -9999 -9999 -9999 -9999 -9999 -9999 -9999 -9999 -9999 -9999 -9999 -9999 -9999 -9999 -9999 -9999 -9999 -9999 -9999 -9999 -9999 -9999 -9999 -9999 -9999 -9999 -9999 -9999 -9999 -9999 -9999 -9999 -9999 -9999 -9999 -9999 -9999 -9999 -9999 -9999 -9999 -9999 -9999 -9999 -9999 -9999 -9999 -9999 -9999 -9999 -9999 -9999 -9999 -9999 -9999 -9999 -9999 -9999 -9999 -9999 -9999 -9999 -9999 -9999 -9999
-9999 -9999 -9999 -9999 -9999 -9999 -9999 -9999 -9999 -9999 -9999 -9999 -9999 -9999 -9999 -9999 -9999 -9999 -9999 -9999 -9999 -9999 -9999 -9999 -9999 -9999 -9999 -9999 -9999 -9999 -9999 -9999 -9999 -9999 -9999 -9999 -9999 -9999 -9999 -9999 -9999 -9999 -9999 -9999 -9999 -9999 -9999 -9999 -9999 -9999 -9999 -9999 -9999 -9999 -9999 -9999 -9999 -9999 -9999 -9999 -9999 -9999 -9999 -9999 -9999 -9999 -9999 -9999 -9999 -9999 -9999 -9999 -9999 -9999 -9999 -9999 -9999 -9999 -9999 -9999 -9999 -9999 -9999 -9999 -9999 -9999 -9999 -9999 -9999 -9999 -9999 -9999 -9999 -9999 -9999 -9999 -9999 -9999 -9999 -9999 -9999 -9999 -9999 -9999 -9999 -9999 -9999 -9999 -9999 -9999 -9999 -9999 -9999 595 590 569 573 577 594 572 574 574 581 583 541 559 543 488 434 399 365 331 297 281 265 249 205 205 179 169 159 156 154 153 153 154 152 152 151 150 150 151 151 151 151 152 152 152 156 166 166 175 177 179 175 169 164 155 151 151 153 156 159 160 165 168 160 173 172 178 178 175 170 169 162 162 158 165 170 169 164 162 165 168 163 160 160 162 165 163 161 161 161 156 154 154 153 153 153 153 152 151 152 153 153 153 154 154 158 159 160 160 159 159 158 159 158 159 158 157 152 157 156 156 157 158 158 157 156 155 157 158 153 152 151 144 139 138 137 137 137 137 137 137 136 139 140 143 144 143 147 154 154 156 159 159 163 165 164 164 170 181 200 221 240 261 293 301 327 375 427 427 455 410 355 314 283 256 228 228 243 253 251 301 340 393 464 464 483 436 405 424 412 366 341 286 238 195 174 169 176 188 166 -9999 -9999 -9999 -9999 -9999 -9999 -9999 -9999 -9999 -9999 -9999 -9999 -9999 -9999 -9999 -9999 -9999 -9999 -9999 -9999 -9999 -9999 -9999 -9999 -9999 -9999 -9999 -9999 -9999 -9999 -9999 -9999 -9999 -9999 -9999 -9999 -9999 -9999 -9999 -9999 -9999 -9999 -9999 -9999 -9999 -9999 -9999 -9999 -9999 -9999 -9999 -9999 -9999 -9999 -9999 -9999 -9999 -9999 -9999 -9999 -9999 -9999 -9999 -9999 -9999 -9999 -9999 -9999 -9999 -9999 -9999
-9999 -9999 -9999 -9999 -9999 -9999 -9999 -9999 -9999 -9999 -9999 -9999 -9999 -9999 -9999 -9999 -9999 -9999 -9999 -9999 -9999 -9999 -9999 -9999 -9999 -9999 -9999 -9999 -9999 -9999 -9999 -9999 -9999 -9999 -9999 -9999 -9999 -9999 -9999 -9999 -9999 -9999 -9999 -9999 -9999 -9999 -9999 -9999 -9999 -9999 -9999 -9999 -9999 -9999 -9999 -9999 -9999 -9999 -9999 -9999 -9999 -9999 -9999 -9999 -9999 -9999 -9999 -9999 -9999 -9999 -9999 -9999 -9999 -9999 -9999 -9999 -9999 -9999 -9999 -9999 -9999 -9999 -9999 -9999 -9999 -9999 -9999 -9999 -9999 -9999 -9999 -9999 -9999 -9999 -9999 -9999 -9999 -9999 -9999 -9999 -9999 -9999 -9999 -9999 -9999 -9999 -9999 -9999 -9999 -9999 -9999 -9999 570 557 523 494 490 535 519 484 502 502 527 502 460 482 516 506 472 439 415 394 353 310 266 218 192 192 180 170 160 156 154 153 153 158 158 153 151 150 150 150 151 151 153 164 168 158 161 171 173 179 181 175 171 167 163 154 152 152 157 166 172 178 175 161 162 173 180 183 180 175 172 167 160 160 160 166 171 169 163 165 168 169 163 161 161 163 165 160 156 156 154 155 155 155 155 155 154 154 153 152 153 153 153 154 155 155 159 160 162 161 161 160 160 159 158 158 157 156 155 157 156 156 157 157 157 159 160 161 164 163 161 160 150 139 139 138 138 138 138 138 138 137 137 137 138 140 141 139 140 146 147 149 156 156 161 157 156 161 167 175 186 200 210 232 264 287 316 357 404 404 453 422 366 329 302 283 265 261 258 268 272 294 343 392 451 451 500 500 480 486 461 395 333 284 234 202 183 180 211 244 198 -9999 -9999 -9999 -9999 -9999 -9999 -9999 -9999 -9999 -9999 -9999 -9999 -9999 -9999 -9999 -9999 -9999 -9999 -9999 -9999 -9999 -9999 -9999 -9999 -9999 -9999 -9999 -9999 -9999 -9999 -9999 -9999 -9999 -9999 -9999 -9999 -9999 -9999 -9999 -9999 -9999 -9999 -9999 -9999 -9999 -9999 -9999 -9999 -9999 -9999 -9999 -9999 -9999 -9999 -9999 -9999 -9999 -9999 -9999 -9999 -9999 -9999 -9999 -9999 -9999 -9999 -9999 -9999 -9999 -9999 -9999
-9999 -9999 -9999 -9999 -9999 -9999 -9999 -9999 -9999 -9999 -9999 -9999 -9999 -9999 -9999 -9999 -9999 -9999 -9999 -9999 -9999 -9999 -9999 -9999 -9999 -9999 -9999 -9999 -9999 -9999 -9999 -9999 -9999 -9999 -9999 -9999 -9999 -9999 -9999 -9999 -9999 -9999 -9999 -9999 -9999 -9999 -9999 -9999 -9999 -9999 -9999 -9999 -9999 -9999 -9999 -9999 -9999 -9999 -9999 -9999 -9999 -9999 -9999 -9999 -9999 -9999 -9999 -9999 -9999 -9999 -9999 -9999 -9999 -9999 -9999 -9999 -9999 -9999 -9999 -9999 -9999 -9999 -9999 -9999 -9999 -9999 -9999 -9999 -9999 -9999 -9999 -9999 -9999 -9999 -9999 -9999 -9999 -9999 -9999 -9999 -9999 -9999 -9999 -9999 -9999 -9999 -9999 -9999 -9999 -9999 -9999 539 528 514 472 450 450 504 466 412 400 400 445 437 389 406 433 446 411 435 438 406 358 300 242 199 180 180 175 169 171 166 157 156 153 157 169 167 153 152 155 153 154 154 164 176 180 162 171 175 174 176 182 188 179 168 158 152 152 152 159 170 175 171 169 170 180 179 190 188 187 178 167 162 159 159 162 169 170 165 165 170 174 172 164 162 162 166 163 157 154 154 155 156 158 158 158 156 158 158 153 153 154 155 155 155 156 156 160 161 161 162 162 160 160 159 159 158 157 155 157 158 158 158 156 156 156 158 158 159 163 165 164 153 141 139 139 139 138 138 138 138 138 138 138 137 138 138 138 139 139 140 143 152 152 152 152 153 155 159 164 172 183 193 206 214 233 267 290 319 377 377 447 449 416 371 335 346 326 312 290 311 336 335 352 401 466 466 523 -9999 -9999 -9999 -9999 420 348 305 277 244 210 198 230 262 228 -9999 -9999 -9999 -9999 -9999 -9999 -9999 -9999 -9999 -9999 -9999 -9999 -9999 -9999 -9999 -9999 -9999 -9999 -9999 -9999 -9999 -9999 -9999 -9999 -9999 -9999 -9999 -9999 -9999 -9999 -9999 -9999 -9999 -9999 -9999 -9999 -9999 -9999 -9999 -9999 -9999 -9999 -9999 -9999 -9999 -9999 -9999 -9999 -9999 -9999 -9999 -9999 -9999 -9999 -9999 -9999 -9999 -9999 -9999 -9999 -9999 -9999 -9999 -9999 -9999 -9999 -9999 -9999 -9999 -9999 -9999
-9999 -9999 -9999 -9999 -9999 -9999 -9999 -9999 -9999 -9999 -9999 -9999 -9999 -9999 -9999 -9999 -9999 -9999 -9999 -9999 -9999 -9999 -9999 -9999 -9999 -9999 -9999 -9999 -9999 -9999 -9999 -9999 -9999 -9999 -9999 -9999 -9999 -9999 -9999 -9999 -9999 -9999 -9999 -9999 -9999 -9999 -9999 -9999 -9999 -9999 -9999 -9999 -9999 -9999 -9999 -9999 -9999 -9999 -9999 -9999 -9999 -9999 -9999 -9999 -9999 -9999 -9999 -9999 -9999 -9999 -9999 -9999 -9999 -9999 -9999 -9999 -9999 -9999 -9999 -9999 -9999 -9999 -9999 -9999 -9999 -9999 -9999 -9999 -9999 -9999 -9999 -9999 -9999 -9999 -9999 -9999 -9999 -9999 -9999 -9999 -9999 -9999 -9999 -9999 -9999 -9999 -9999 -9999 -9999 495 512 500 472 457 437 386 445 493 453 401 350 350 357 388 348 354 401 377 335 349 356 328 322 276 226 204 204 204 187 179 177 168 157 153 153 156 167 161 154 168 174 159 168 168 180 188 185 168 186 193 187 188 187 184 175 163 156 152 152 152 161 171 174 171 175 181 180 190 193 188 187 174 173 169 161 161 165 170 169 166 170 174 177 172 165 162 163 165 162 158 155 155 156 157 160 160 161 163 160 157 154 154 157 157 159 158 157 157 159 162 163 162 163 161 160 162 160 157 156 156 158 158 157 157 156 156 155 156 155 156 156 157 151 142 139 139 139 140 139 139 138 138 139 140 138 137 139 138 138 138 139 142 144 145 147 147 151 154 154 156 161 171 185 204 224 234 242 272 310 342 382 382 434 479 471 428 400 405 381 366 336 360 397 396 396 441 479 -9999 -9999 -9999 -9999 -9999 -9999 -9999 356 327 315 292 265 231 236 266 -9999 -9999 -9999 -9999 -9999 -9999 -9999 -9999 -9999 -9999 -9999 -9999 -9999 -9999 -9999 -9999 -9999 -9999 -9999 -9999 -9999 -9999 -9999 -9999 -9999 -9999 -9999 -9999 -9999 -9999 -9999 -9999 -9999 -9999 -9999 -9999 -9999 -9999 -9999 -9999 -9999 -9999 -9999 -9999 -9999 -9999 -9999 -9999 -9999 -9999 -9999 -9999 -9999 -9999 -9999 -9999 -9999 -9999 -9999 -9999 -9999 -9999 -9999 -9999 -9999 -9999 -9999 -9999 -9999 -9999 -9999 -9999
-9999 -9999 -9999 -9999 -9999 -9999 -9999 -9999 -9999 -9999 -9999 -9999 -9999 -9999 -9999 -9999 -9999 -9999 -9999 -9999 -9999 -9999 -9999 -9999 -9999 -9999 -9999 -9999 -9999 -9999 -9999 -9999 -9999 -9999 -9999 -9999 -9999 -9999 -9999 -9999 -9999 -9999 -9999 -9999 -9999 -9999 -9999 -9999 -9999 -9999 -9999 -9999 -9999 -9999 -9999 -9999 -9999 -9999 -9999 -9999 -9999 -9999 -9999 -9999 -9999 -9999 -9999 -9999 -9999 -9999 -9999 -9999 -9999 -9999 -9999 -9999 -9999 -9999 -9999 -9999 -9999 -9999 -9999 -9999 -9999 -9999 -9999 -9999 -9999 -9999 -9999 -9999 -9999 -9999 -9999 -9999 -9999 -9999 -9999 -9999 -9999 -9999 -9999 -9999 -9999 -9999 -9999 496 490 470 447 450 427 402 384 374 432 485 451 408 366 366 309 313 294 335 345 327 289 276 264 255 251 236 208 196 190 190 186 187 177 173 158 154 156 162 167 158 155 165 180 170 169 169 181 192 191 182 181 189 193 190 177 173 178 168 157 154 155 155 172 171 170 180 180 183 187 187 192 187 182 181 175 167 164 164 169 174 170 168 172 180 179 173 165 163 164 167 163 157 156 156 158 158 159 162 164 162 158 155 155 156 159 160 161 161 159 159 161 163 163 163 161 161 160 162 161 158 159 157 157 156 156 156 156 156 155 155 153 151 151 151 147 140 139 140 140 140 140 140 140 139 140 141 137 138 138 138 138 139 139 142 143 144 144 144 149 152 153 156 160 168 179 188 197 208 231 255 287 336 404 404 460 456 472 469 469 466 446 426 391 413 -9999 -9999 449 475 494 -9999 -9999 -9999 -9999 -9999 -9999 -9999 -9999 -9999 -9999 -9999 -9999 -9999 -9999 -9999 -9999 -9999 -9999 -9999 -9999 -9999 -9999 -9999 -9999 -9999 -9999 -9999 -9999 -9999 -9999 -9999 -9999 -9999 -9999 -9999 -9999 -9999 -9999 -9999 -9999 -9999 -9999 -9999 -9999 -9999 -9999 -9999 -9999 -9999 -9999 -9999 -9999 -9999 -9999 -9999 -9999 -9999 -9999 -9999 -9999 -9999 -9999 -9999 -9999 -9999 -9999 -9999 -9999 -9999 -9999 -9999 -9999 -9999 -9999 -9999 -9999 -9999 -9999 -9999 -9999 -9999 -9999 -9999 -9999 -9999 -9999 -9999
-9999 -9999 -9999 -9999 -9999 -9999 -9999 -9999 -9999 -9999 -9999 -9999 -9999 -9999 -9999 -9999 -9999 -9999 -9999 -9999 -9999 -9999 -9999 -9999 -9999 -9999 -9999 -9999 -9999 -9999 -9999 -9999 -9999 -9999 -9999 -9999 -9999 -9999 -9999 -9999 -9999 -9999 -9999 -9999 -9999 -9999 -9999 -9999 -9999 -9999 -9999 -9999 -9999 -9999 -9999 -9999 -9999 -9999 -9999 -9999 -9999 -9999 -9999 -9999 -9999 -9999 -9999 -9999 -9999 -9999 -9999 -9999 -9999 -9999 -9999 -9999 -9999 -9999 -9999 -9999 -9999 -9999 -9999 -9999 -9999 -9999 -9999 -9999 -9999 -9999 -9999 -9999 -9999 -9999 -9999 -9999 -9999 -9999 -9999 -9999 -9999 -9999 -9999 -9999 -9999 -9999 510 486 434 412 392 363 348 342 346 405 451 447 447 404 350 350 300 266 266 282 275 263 241 240 227 208 197 189 193 202 184 184 169 168 160 157 155 155 157 175 171 161 158 168 180 183 175 175 187 194 204 190 181 186 193 184 175 169 165 160 155 154 158 158 176 172 174 183 188 190 196 197 196 197 193 182 174 165 167 167 174 175 171 168 170 177 177 170 165 164 167 172 164 159 158 158 159 161 160 162 165 164 164 157 155 157 158 160 161 162 161 161 164 165 164 163 164 164 162 161 160 159 158 156 157 156 156 156 157 157 156 156 156 153 150 145 143 139 140 141 141 140 140 140 140 140 142 144 141 137 138 140 140 139 139 140 142 143 145 145 147 150 156 159 164 170 173 183 194 204 219 246 281 323 380 380 436 417 397 417 450 469 -9999 -9999 -9999 -9999 -9999 -9999 -9999 -9999 -9999 -9999 -9999 -9999 -9999 -9999 -9999 -9999 -9999 -9999 -9999 -9999 -9999 -9999 -9999 -9999 -9999 -9999 -9999 -9999 -9999 -9999 -9999 -9999 -9999 -9999 -9999 -9999 -9999 -9999 -9999 -9999 -9999 -9999 -9999 -9999 -9999 -9999 -9999 -9999 -9999 -9999 -9999 -9999 -9999 -9999 -9999 -9999 -9999 -9999 -9999 -9999 -9999 -9999 -9999 -9999 -9999 -9999 -9999 -9999 -9999 -9999 -9999 -9999 -9999 -9999 -9999 -9999 -9999 -9999 -9999 -9999 -9999 -9999 -9999 -9999 -9999 -9999 -9999 -9999 -9999 -9999 -9999 -9999 -9999 -9999 -9999 -9999
-9999 -9999 -9999 -9999 -9999 -9999 -9999 -9999 -9999 -9999 -9999 -9999 -9999 -9999 -9999 -9999 -9999 -9999 -9999 -9999 -9999 -9999 -9999 -9999 -9999 -9999 -9999 -9999 -9999 -9999 -9999 -9999 -9999 -9999 -9999 -9999 -9999 -9999 -9999 -9999 -9999 -9999 -9999 -9999 -9999 -9999 -9999 -9999 -9999 -9999 -9999 -9999 -9999 -9999 -9999 -9999 -9999 -9999 -9999 -9999 -9999 -9999 -9999 -9999 -9999 -9999 -9999 -9999 -9999 -9999 -9999 -9999 -9999 -9999 -9999 -9999 -9999 -9999 -9999 -9999 -9999 -9999 -9999 -9999 -9999 -9999 -9999 -9999 -9999 -9999 -9999 -9999 -9999 -9999 -9999 -9999 -9999 -9999 -9999 -9999 -9999 -9999 -9999 -9999 -9999 509 490 431 372 367 356 338 314 293 336 393 418 402 439 422 389 389 333 285 251 238 215 212 200 198 188 178 181 173 169 175 169 169 160 156 156 157 157 157 157 167 175 165 158 171 181 190 194 194 208 216 214 201 193 193 188 181 174 170 160 155 155 155 155 155 163 165 175 185 189 191 197 203 205 205 199 189 176 167 173 173 181 181 177 171 170 175 174 169 165 166 170 173 165 161 159 159 162 166 163 163 166 167 164 159 157 158 159 160 164 164 162 162 164 166 165 165 166 164 162 162 160 159 158 157 158 156 156 156 157 158 156 155 154 153 154 152 143 139 142 142 143 144 143 143 142 141 145 146 148 142 139 138 138 139 140 139 141 142 143 143 147 153 157 158 161 163 168 177 190 205 218 230 262 314 366 366 401 382 348 359 397 -9999 -9999 -9999 -9999 -9999 -9999 -9999 -9999 -9999 -9999 -9999 -9999 -9999 -9999 -9999 -9999 -9999 -9999 -9999 -9999 -9999 -9999 -9999 -9999 -9999 -9999 -9999 -9999 -9999 -9999 -9999 -9999 -9999 -9999 -9999 -9999 -9999 -9999 -9999 -9999 -9999 -9999 -9999 -9999 -9999 -9999 -9999 -9999 -9999 -9999 -9999 -9999 -9999 -9999 -9999 -9999 -9999 -9999 -9999 -9999 -9999 -9999 -9999 -9999 -9999 -9999 -9999 -9999 -9999 -9999 -9999 -9999 -9999 -9999 -9999 -9999 -9999 -9999 -9999 -9999 -9999 -9999 -9999 -9999 -9999 -9999 -9999 -9999 -9999 -9999 -9999 -9999 -9999 -9999 -9999 -9999 -9999
-9999 -9999 -9999 -9999 -9999 -9999 -9999 -9999 -9999 -9999 -9999 -9999 -9999 -9999 -9999 -9999 -9999 -9999 -9999 -9999 -9999 -9999 -9999 -9999 -9999 -9999 -9999 -9999 -9999 -9999 -9999 -9999 -9999 -9999 -9999 -9999 -9999 -9999 -9999 -9999 -9999 -9999 -9999 -9999 -9999 -9999 -9999 -9999 -9999 -9999 -9999 -9999 -9999 -9999 -9999 -9999 -9999 -9999 -9999 -9999 -9999 -9999 -9999 -9999 -9999 -9999 -9999 -9999 -9999 -9999 -9999 -9999 -9999 -9999 -9999 -9999 -9999 -9999 -9999 -9999 -9999 -9999 -9999 -9999 -9999 -9999 -9999 -9999 -9999 -9999 -9999 -9999 -9999 -9999 -9999 -9999 -9999 -9999 -9999 -9999 -9999 -9999 528 526 520 520 496 434 397 437 421 403 358 314 286 327 376 371 372 370 381 381 347 313 280 233 196 181 178 171 166 164 179 181 169 161 158 158 156 158 163 163 162 171 174 177 181 171 161 167 178 195 211 211 220 222 215 208 194 188 183 173 165 163 157 156 156 153 154 154 157 161 165 171 176 180 188 196 208 207 195 183 173 171 181 181 187 186 181 174 174 176 176 169 166 168 175 175 170 164 160 160 166 168 164 165 167 173 164 158 158 161 163 162 166 168 165 165 167 168 166 166 165 164 162 160 159 158 158 156 154 157 155 155 154 156 155 154 149 147 150 145 141 141 145 146 148 145 145 145 143 144 147 148 149 145 140 138 138 139 142 140 139 141 142 142 144 148 150 153 156 161 166 174 184 193 205 226 258 313 357 357 372 361 318 322 352 -9999 -9999 -9999 -9999 -9999 -9999 -9999 -9999 -9999 -9999 -9999 -9999 -9999 -9999 -9999 -9999 -9999 -9999 -9999 -9999 -9999 -9999 -9999 -9999 -9999 -9999 -9999 -9999 -9999 -9999 -9999 -9999 -9999 -9999 -9999 -9999 -9999 -9999 -9999 -9999 -9999 -9999 -9999 -9999 -9999 -9999 -9999 -9999 -9999 -9999 -9999 -9999 -9999 -9999 -9999 -9999 -9999 -9999 -9999 -9999 -9999 -9999 -9999 -9999 -9999 -9999 -9999 -9999 -9999 -9999 -9999 -9999 -9999 -9999 -9999 -9999 -9999 -9999 -9999 -9999 -9999 -9999 -9999 -9999 -9999 -9999 -9999 -9999 -9999 -9999 -9999 -9999 -9999 -9999 -9999 -9999 -9999
-9999 -9999 -9999 -9999 -9999 -9999 -9999 -9999 -9999 -9999 -9999 -9999 -9999 -9999 -9999 -9999 -9999 -9999 -9999 -9999 -9999 -9999 -9999 -9999 -9999 -9999 -9999 -9999 -9999 -9999 -9999 -9999 -9999 -9999 -9999 -9999 -9999 -9999 -9999 -9999 -9999 -9999 -9999 -9999 -9999 -9999 -9999 -9999 -9999 -9999 -9999 -9999 -9999 -9999 -9999 -9999 -9999 -9999 -9999 -9999 -9999 -9999 -9999 -9999 -9999 -9999 -9999 -9999 -9999 -9999 -9999 -9999 -9999 -9999 -9999 -9999 -9999 -9999 -9999 -9999 -9999 -9999 -9999 -9999 -9999 -9999 -9999 -9999 -9999 -9999 -9999 -9999 -9999 -9999 -9999 -9999 -9999 -9999 -9999 -9999 -9999 542 538 521 505 505 490 432 460 475 445 388 350 327 301 281 324 363 351 326 325 325 286 257 237 220 190 186 188 176 171 164 161 164 160 157 156 156 156 163 173 173 164 172 184 189 186 174 163 166 177 189 203 203 206 213 210 193 183 177 173 166 165 167 162 160 157 156 155 155 158 165 166 175 180 189 197 202 203 198 193 180 172 178 188 188 195 189 179 178 183 181 177 169 167 170 180 181 178 171 163 163 164 170 166 166 168 169 165 160 163 166 163 163 167 170 170 170 167 169 168 167 166 163 162 160 160 159 158 157 155 154 153 153 154 156 153 148 142 142 142 141 145 149 149 150 150 148 150 150 147 147 148 147 147 142 140 141 141 137 141 143 140 141 141 141 143 146 148 152 157 161 166 172 177 183 195 215 234 282 312 312 311 299 273 296 319 -9999 -9999 -9999 -9999 -9999 -9999 -9999 -9999 -9999 -9999 -9999 -9999 -9999 -9999 -9999 -9999 -9999 -9999 -9999 -9999 -9999 -9999 -9999 -9999 -9999 -9999 -9999 -9999 -9999 -9999 -9999 -9999 -9999 -9999 -9999 -9999 -9999 -9999 -9999 -9999 -9999 -9999 -9999 -9999 -9999 -9999 -9999 -9999 -9999 -9999 -9999 -9999 -9999 -9999 -9999 -9999 -9999 -9999 -9999 -9999 -9999 -9999 -9999 -9999 -9999 -9999 -9999 -9999 -9999 -9999 -9999 -9999 -9999 -9999 -9999 -9999 -9999 -9999 -9999 -9999 -9999 -9999 -9999 -9999 -9999 -9999 -9999 -9999 -9999 -9999 -9999 -9999 -9999 -9999 -9999 -9999 -9999
-9999 -9999 -9999 -9999 -9999 -9999 -9999 -9999 -9999 -9999 -9999 -9999 -9999 -9999 -9999 -9999 -9999 -9999 -9999 -9999 -9999 -9999 -9999 -9999 -9999 -9999 -9999 -9999 -9999 -9999 -9999 -9999 -9999 -9999 -9999 -9999 -9999 -9999 -9999 -9999 -9999 -9999 -9999 -9999 -9999 -9999 -9999 -9999 -9999 -9999 -9999 -9999 -9999 -9999 -9999 -9999 -9999 -9999 -9999 -9999 -9999 -9999 -9999 -9999 -9999 -9999 -9999 -9999 -9999 -9999 -9999 -9999 -9999 -9999 -9999 -9999 -9999 -9999 -9999 -9999 -9999 -9999 -9999 -9999 -9999 -9999 -9999 -9999 -9999 -9999 -9999 -9999 -9999 -9999 -9999 -9999 -9999 -9999 -9999 -9999 544 534 539 516 514 514 492 488 497 470 439 385 373 373 338 285 271 297 313 318 327 327 273 215 196 195 197 203 210 205 196 182 168 159 157 156 156 156 158 165 178 179 174 181 194 198 192 176 165 172 175 179 189 189 197 209 209 202 190 179 171 175 173 166 162 165 160 155 154 154 162 165 167 177 188 194 200 204 199 188 181 179 179 180 193 193 204 199 186 183 190 183 177 171 168 172 180 185 180 172 165 165 166 173 169 169 175 173 168 164 164 168 165 165 170 172 172 172 168 169 170 168 166 165 162 162 160 159 159 158 157 156 155 155 152 153 152 143 140 141 142 144 151 150 152 151 149 150 149 149 149 149 148 147 144 143 144 146 143 138 141 143 142 141 141 141 141 144 149 153 157 158 161 164 168 176 184 198 215 239 245 245 247 243 261 283 283 -9999 -9999 -9999 -9999 -9999 -9999 -9999 -9999 -9999 -9999 -9999 -9999 -9999 -9999 -9999 -9999 -9999 -9999 -9999 -9999 -9999 -9999 -9999 -9999 -9999 -9999 -9999 -9999 -9999 -9999 -9999 -9999 -9999 -9999 -9999 -9999 -9999 -9999 -9999 -9999 -9999 -9999 -9999 -9999 -9999 -9999 -9999 -9999 -9999 -9999 -9999 -9999 -9999 -9999 -9999 -9999 -9999 -9999 -9999 -9999 -9999 -9999 -9999 -9999 -9999 -9999 -9999 -9999 -9999 -9999 -9999 -9999 -9999 -9999 -9999 -9999 -9999 -9999 -9999 -9999 -9999 -9999 -9999 -9999 -9999 -9999 -9999 -9999 -9999 -9999 -9999 -9999 -9999 -9999 -9999 -9999 -9999
-9999 -9999 -9999 -9999 -9999 -9999 -9999 -9999 -9999 -9999 -9999 -9999 -9999 -9999 -9999 -9999 -9999 -9999 -9999 -9999 -9999 -9999 -9999 -9999 -9999 -9999 -9999 -9999 -9999 -9999 -9999 -9999 -9999 -9999 -9999 -9999 -9999 -9999 -9999 -9999 -9999 -9999 -9999 -9999 -9999 -9999 -9999 -9999 -9999 -9999 -9999 -9999 -9999 -9999 -9999 -9999 -9999 -9999 -9999 -9999 -9999 -9999 -9999 -9999 -9999 -9999 -9999 -9999 -9999 -9999 -9999 -9999 -9999 -9999 -9999 -9999 -9999 -9999 -9999 -9999 -9999 -9999 -9999 -9999 -9999 -9999 -9999 -9999 -9999 -9999 -9999 -9999 -9999 -9999 -9999 -9999 -9999 -9999 -9999 550 544 534 539 516 514 514 492 488 497 470 439 385 373 373 338 285 271 297 313 318 327 327 273 215 196 195 197 203 210 205 196 182 168 159 157 156 156 156 158 165 178 179 174 181 194 198 192 176 165 172 175 179 189 189 197 209 209 202 190 179 171 175 173 166 162 165 160 155 154 154 162 165 167 177 188 194 200 204 199 188 181 179 179 180 193 193 204 199 186 183 190 183 177 171 168 172 180 185 180 172 165 165 166 173 169 169 175 173 168 164 164 168 165 165 170 172 172 172 168 169 170 168 166 165 162 162 160 159 159 158 157 156 155 155 152 153 152 143 140 141 142 144 151 150 152 151 149 150 149 149 149 149 148 147 144 143 144 146 143 138 141 143 142 141 141 141 141 144 149 153 157 158 161 164 168 176 184 198 215 239 245 245 247 243 261 283 283 -9999 -9999 -9999 -9999 -9999 -9999 -9999 -9999 -9999 -9999 -9999 -9999 -9999 -9999 -9999 -9999 -9999 -9999 -9999 -9999 -9999 -9999 -9999 -9999 -9999 -9999 -9999 -9999 -9999 -9999 -9999 -9999 -9999 -9999 -9999 -9999 -9999 -9999 -9999 -9999 -9999 -9999 -9999 -9999 -9999 -9999 -9999 -9999 -9999 -9999 -9999 -9999 -9999 -9999 -9999 -9999 -9999 -9999 -9999 -9999 -9999 -9999 -9999 -9999 -9999 -9999 -9999 -9999 -9999 -9999 -9999 -9999 -9999 -9999 -9999 -9999 -9999 -9999 -9999 -9999 -9999 -9999 -9999 -9999 -9999 -9999 -9999 -9999 -9999 -9999 -9999 -9999 -9999 -9999 -9999 -9999 -9999
-9999 -9999 -9999 -9999 -9999 -9999 -9999 -9999 -9999 -9999 -9999 -9999 -9999 -9999 -9999 -9999 -9999 -9999 -9999 -9999 -9999 -9999 -9999 -9999 -9999 -9999 -9999 -9999 -9999 -9999 -9999 -9999 -9999 -9999 -9999 -9999 -9999 -9999 -9999 -9999 -9999 -9999 -9999 -9999 -9999 -9999 -9999 -9999 -9999 -9999 -9999 -9999 -9999 -9999 -9999 -9999 -9999 -9999 -9999 -9999 -9999 -9999 -9999 -9999 -9999 -9999 -9999 -9999 -9999 -9999 -9999 -9999 -9999 -9999 -9999 -9999 -9999 -9999 -9999 -9999 -9999 -9999 -9999 -9999 -9999 -9999 -9999 -9999 -9999 -9999 -9999 -9999 -9999 -9999 -9999 -9999 -9999 -9999 -9999 553 544 527 518 519 533 533 536 531 519 510 467 443 452 407 362 340 289 252 269 286 288 288 243 209 225 224 226 241 245 238 204 180 177 168 158 160 164 164 172 161 165 181 185 191 201 190 181 171 169 183 192 199 206 206 206 208 205 199 181 175 182 183 174 163 164 163 158 156 155 155 161 173 169 174 182 189 195 202 197 187 190 193 191 183 195 195 207 213 197 189 189 181 173 170 169 171 182 187 183 174 168 168 168 175 170 172 179 180 172 167 165 170 167 170 174 177 176 176 172 173 174 171 168 165 163 163 161 160 159 157 156 157 156 156 153 149 146 142 144 148 148 149 151 152 151 151 151 151 150 150 148 148 147 146 146 145 144 144 143 141 144 144 144 141 141 141 143 146 149 150 152 155 156 158 163 169 184 195 196 205 201 201 210 247 262 269 260 -9999 -9999 -9999 -9999 -9999 -9999 -9999 -9999 -9999 -9999 -9999 -9999 -9999 -9999 -9999 -9999 -9999 -9999 -9999 -9999 -9999 -9999 -9999 -9999 -9999 -9999 -9999 -9999 -9999 -9999 -9999 -9999 -9999 -9999 -9999 -9999 -9999 -9999 -9999 -9999 -9999 -9999 -9999 -9999 -9999 -9999 -9999 -9999 -9999 -9999 -9999 -9999 -9999 -9999 -9999 -9999 -9999 -9999 -9999 -9999 -9999 -9999 -9999 -9999 -9999 -9999 -9999 -9999 -9999 -9999 -9999 -9999 -9999 -9999 -9999 -9999 -9999 -9999 -9999 -9999 -9999 -9999 -9999 -9999 -9999 -9999 -9999 -9999 -9999 -9999 -9999 -9999 -9999 -9999 -9999 -9999 -9999
-9999 -9999 -9999 -9999 -9999 -9999 -9999 -9999 -9999 -9999 -9999 -9999 -9999 -9999 -9999 -9999 -9999 -9999 -9999 -9999 -9999 -9999 -9999 -9999 -9999 -9999 -9999 -9999 -9999 -9999 -9999 -9999 -9999 -9999 -9999 -9999 -9999 -9999 -9999 -9999 -9999 -9999 -9999 -9999 -9999 -9999 -9999 -9999 -9999 -9999 -9999 -9999 -9999 -9999 -9999 -9999 -9999 -9999 -9999 -9999 -9999 -9999 -9999 -9999 -9999 -9999 -9999 -9999 -9999 -9999 -9999 -9999 -9999 -9999 -9999 -9999 -9999 -9999 -9999 -9999 -9999 -9999 -9999 -9999 -9999 -9999 -9999 -9999 -9999 -9999 -9999 -9999 -9999 -9999 -9999 -9999 -9999 -9999 -9999 563 547 531 526 533 529 529 552 558 549 529 513 517 486 441 399 346 290 245 238 236 225 225 214 215 240 260 253 251 259 243 208 175 162 162 165 175 179 179 179 166 163 183 201 208 210 197 192 181 170 180 200 212 215 215 216 206 194 186 184 192 190 180 166 165 170 165 158 156 156 156 163 178 179 173 184 188 194 201 196 195 202 208 206 187 192 192 202 213 205 197 188 180 173 175 171 170 180 188 184 176 174 174 173 178 174 175 185 187 180 177 168 172 171 171 177 183 180 180 176 176 175 171 168 169 166 164 163 161 160 158 155 155 153 153 151 149 143 144 149 150 151 151 152 153 152 150 151 150 150 150 149 148 148 148 147 147 146 145 141 143 145 145 145 143 140 140 141 144 144 146 151 153 153 155 158 164 172 175 179 183 188 188 196 214 219 229 245 266 -9999 -9999 -9999 -9999 -9999 -9999 -9999 -9999 -9999 -9999 -9999 -9999 -9999 -9999 -9999 -9999 -9999 -9999 -9999 -9999 -9999 -9999 -9999 -9999 -9999 -9999 -9999 -9999 -9999 -9999 -9999 -9999 -9999 -9999 -9999 -9999 -9999 -9999 -9999 -9999 -9999 -9999 -9999 -9999 -9999 -9999 -9999 -9999 -9999 -9999 -9999 -9999 -9999 -9999 -9999 -9999 -9999 -9999 -9999 -9999 -9999 -9999 -9999 -9999 -9999 -9999 -9999 -9999 -9999 -9999 -9999 -9999 -9999 -9999 -9999 -9999 -9999 -9999 -9999 -9999 -9999 -9999 -9999 -9999 -9999 -9999 -9999 -9999 -9999 -9999 -9999 -9999 -9999 -9999 -9999 -9999
-9999 -9999 -9999 -9999 -9999 -9999 -9999 -9999 -9999 -9999 -9999 -9999 -9999 -9999 -9999 -9999 -9999 -9999 -9999 -9999 -9999 -9999 -9999 -9999 -9999 -9999 -9999 -9999 -9999 -9999 -9999 -9999 -9999 -9999 -9999 -9999 -9999 -9999 -9999 -9999 -9999 -9999 -9999 -9999 -9999 -9999 -9999 -9999 -9999 -9999 -9999 -9999 -9999 -9999 -9999 -9999 -9999 -9999 -9999 -9999 -9999 -9999 -9999 -9999 -9999 -9999 -9999 -9999 -9999 -9999 -9999 -9999 -9999 -9999 -9999 -9999 -9999 -9999 -9999 -9999 -9999 -9999 -9999 -9999 -9999 -9999 -9999 -9999 -9999 -9999 -9999 574 570 591 -9999 -9999 -9999 -9999 574 558 556 548 549 539 534 534 545 553 556 545 545 510 462 437 391 326 265 263 278 253 230 230 221 219 221 234 242 226 212 200 182 163 157 167 179 200 209 209 187 180 168 166 185 195 211 217 207 194 182 176 182 196 206 206 211 208 201 198 193 190 180 169 168 175 172 167 158 156 157 157 168 177 188 182 182 197 201 205 204 202 213 217 204 195 203 203 202 212 214 206 191 181 177 182 178 172 174 180 186 187 183 183 181 190 183 177 184 192 193 178 172 176 174 175 182 186 182 182 179 180 178 174 173 175 171 165 162 159 156 155 153 151 150 150 149 144 143 148 151 152 153 151 152 153 153 152 149 149 150 150 150 151 149 148 148 147 146 145 141 145 145 145 144 143 141 141 141 142 143 144 146 148 149 151 155 159 162 167 173 175 176 176 180 187 201 226 269 -9999 -9999 -9999 -9999 -9999 -9999 -9999 -9999 -9999 -9999 -9999 -9999 -9999 -9999 -9999 -9999 -9999 -9999 -9999 -9999 -9999 -9999 -9999 -9999 -9999 -9999 -9999 -9999 -9999 -9999 -9999 -9999 -9999 -9999 -9999 -9999 -9999 -9999 -9999 -9999 -9999 -9999 -9999 -9999 -9999 -9999 -9999 -9999 -9999 -9999 -9999 -9999 -9999 -9999 -9999 -9999 -9999 -9999 -9999 -9999 -9999 -9999 -9999 -9999 -9999 -9999 -9999 -9999 -9999 -9999 -9999 -9999 -9999 -9999 -9999 -9999 -9999 -9999 -9999 -9999 -9999 -9999 -9999 -9999 -9999 -9999 -9999 -9999 -9999 -9999 -9999 -9999 -9999 -9999 -9999 -9999 -9999
-9999 -9999 -9999 -9999 -9999 -9999 -9999 -9999 -9999 -9999 -9999 -9999 -9999 -9999 -9999 -9999 -9999 -9999 -9999 -9999 -9999 -9999 -9999 -9999 -9999 -9999 -9999 -9999 -9999 -9999 -9999 -9999 -9999 -9999 -9999 -9999 -9999 -9999 -9999 -9999 -9999 -9999 -9999 -9999 -9999 -9999 -9999 -9999 -9999 -9999 -9999 -9999 -9999 -9999 -9999 -9999 -9999 -9999 -9999 -9999 -9999 -9999 -9999 -9999 -9999 -9999 -9999 -9999 -9999 -9999 -9999 -9999 -9999 -9999 -9999 -9999 -9999 -9999 -9999 -9999 -9999 -9999 -9999 -9999 -9999 -9999 -9999 -9999 -9999 568 571 567 548 561 572 587 600 599 601 590 578 578 570 548 548 548 547 530 519 536 529 490 423 370 349 287 276 305 315 259 221 221 202 189 178 173 178 173 173 166 165 161 159 175 200 219 221 221 212 201 184 168 170 177 194 215 221 215 195 189 181 184 196 196 210 216 208 196 185 177 178 175 179 185 177 168 160 157 159 159 166 180 190 192 185 189 195 205 214 213 216 226 213 210 223 223 218 219 219 207 192 183 184 189 182 175 176 176 182 189 192 192 194 197 190 182 184 192 196 184 181 181 179 179 186 189 185 185 184 186 184 180 181 178 172 164 161 160 159 158 154 147 145 145 145 145 148 150 153 154 154 152 152 152 152 151 151 150 150 150 151 150 150 148 147 147 146 145 143 145 145 144 144 143 142 142 141 142 143 143 145 146 147 149 153 157 160 162 165 168 172 172 178 186 218 263 295 -9999 -9999 -9999 -9999 -9999 -9999 -9999 -9999 -9999 -9999 -9999 -9999 -9999 -9999 -9999 -9999 -9999 -9999 -9999 -9999 -9999 -9999 -9999 -9999 -9999 -9999 -9999 -9999 -9999 -9999 -9999 -9999 -9999 -9999 -9999 -9999 -9999 -9999 -9999 -9999 -9999 -9999 -9999 -9999 -9999 -9999 -9999 -9999 -9999 -9999 -9999 -9999 -9999 -9999 -9999 -9999 -9999 -9999 -9999 -9999 -9999 -9999 -9999 -9999 -9999 -9999 -9999 -9999 -9999 -9999 -9999 -9999 -9999 -9999 -9999 -9999 -9999 -9999 -9999 -9999 -9999 -9999 -9999 -9999 -9999 -9999 -9999 -9999 -9999 -9999 -9999 -9999 -9999 -9999 -9999 -9999 -9999
-9999 -9999 -9999 -9999 -9999 -9999 -9999 -9999 -9999 -9999 -9999 -9999 -9999 -9999 -9999 -9999 -9999 -9999 -9999 -9999 -9999 -9999 -9999 -9999 -9999 -9999 -9999 -9999 -9999 -9999 -9999 -9999 -9999 -9999 -9999 -9999 -9999 -9999 -9999 -9999 -9999 -9999 -9999 -9999 -9999 -9999 -9999 -9999 -9999 -9999 -9999 -9999 -9999 -9999 -9999 -9999 -9999 -9999 -9999 -9999 -9999 -9999 -9999 -9999 -9999 -9999 -9999 -9999 -9999 -9999 -9999 -9999 -9999 -9999 -9999 -9999 -9999 -9999 -9999 -9999 -9999 -9999 -9999 -9999 -9999 -9999 -9999 556 563 563 552 552 535 556 572 574 572 575 574 585 597 591 577 565 568 568 569 536 485 470 474 467 423 363 305 310 331 332 304 252 217 217 211 200 181 168 160 160 161 160 159 160 168 173 185 210 241 241 241 220 200 178 185 184 188 199 208 221 218 204 192 186 189 189 200 215 210 199 185 189 197 182 182 190 178 168 162 159 159 159 167 181 191 202 199 192 192 199 210 219 222 234 229 235 250 250 234 227 211 197 187 192 197 194 182 179 184 180 188 192 195 195 209 214 207 192 186 192 202 195 192 185 188 188 190 195 191 191 190 195 192 186 183 174 169 169 164 162 160 157 151 144 148 148 149 150 151 154 153 153 155 156 152 151 150 152 151 150 150 150 149 149 149 149 148 146 145 145 144 145 146 145 145 144 142 142 142 142 142 144 144 146 147 149 151 153 156 159 162 169 176 176 189 201 210 251 295 -9999 -9999 -9999 -9999 -9999 -9999 -9999 -9999 -9999 -9999 -9999 -9999 -9999 -9999 -9999 -9999 -9999 -9999 -9999 -9999 -9999 -9999 -9999 -9999 -9999 -9999 -9999 -9999 -9999 -9999 -9999 -9999 -9999 -9999 -9999 -9999 -9999 -9999 -9999 -9999 -9999 -9999 -9999 -9999 -9999 -9999 -9999 -9999 -9999 -9999 -9999 -9999 -9999 -9999 -9999 -9999 -9999 -9999 -9999 -9999 -9999 -9999 -9999 -9999 -9999 -9999 -9999 -9999 -9999 -9999 -9999 -9999 -9999 -9999 -9999 -9999 -9999 -9999 -9999 -9999 -9999 -9999 -9999 -9999 -9999 -9999 -9999 -9999 -9999 -9999 -9999 -9999 -9999 -9999 -9999 -9999 -9999
-9999 -9999 -9999 -9999 -9999 -9999 -9999 -9999 -9999 -9999 -9999 -9999 -9999 -9999 -9999 -9999 -9999 -9999 -9999 -9999 -9999 -9999 -9999 -9999 -9999 -9999 -9999 -9999 -9999 -9999 -9999 -9999 -9999 -9999 -9999 -9999 -9999 -9999 -9999 -9999 -9999 -9999 -9999 -9999 -9999 -9999 -9999 -9999 -9999 -9999 -9999 -9999 -9999 -9999 -9999 -9999 -9999 -9999 -9999 -9999 -9999 -9999 -9999 -9999 -9999 -9999 -9999 -9999 -9999 -9999 -9999 -9999 -9999 -9999 -9999 -9999 -9999 -9999 -9999 -9999 -9999 -9999 -9999 -9999 -9999 -9999 -9999 556 542 542 536 518 503 534 532 528 546 554 566 585 612 607 605 595 597 597 578 534 500 471 446 415 378 336 313 322 310 317 300 253 222 222 203 190 183 186 172 161 162 173 178 170 166 183 198 211 233 233 222 200 184 191 210 208 198 200 211 226 232 221 204 190 199 199 204 218 215 201 191 202 199 184 185 192 180 172 160 159 160 160 164 180 191 200 210 212 209 208 216 223 242 250 259 269 277 277 251 222 202 192 195 203 200 188 181 185 191 185 202 210 204 204 204 209 215 201 202 202 210 216 211 194 200 200 199 206 198 198 205 213 204 193 182 175 173 178 167 158 155 154 149 146 150 150 151 152 153 153 153 152 153 154 153 153 151 151 151 150 150 150 149 148 148 148 148 147 146 146 144 146 146 145 144 143 143 143 143 142 141 142 145 146 147 150 152 156 158 161 168 181 194 194 202 231 225 245 -9999 -9999 -9999 -9999 -9999 -9999 -9999 -9999 -9999 -9999 -9999 -9999 -9999 -9999 -9999 -9999 -9999 -9999 -9999 -9999 -9999 -9999 -9999 -9999 -9999 -9999 -9999 -9999 -9999 -9999 -9999 -9999 -9999 -9999 -9999 -9999 -9999 -9999 -9999 -9999 -9999 -9999 -9999 -9999 -9999 -9999 -9999 -9999 -9999 -9999 -9999 -9999 -9999 -9999 -9999 -9999 -9999 -9999 -9999 -9999 -9999 -9999 -9999 -9999 -9999 -9999 -9999 -9999 -9999 -9999 -9999 -9999 -9999 -9999 -9999 -9999 -9999 -9999 -9999 -9999 -9999 -9999 -9999 -9999 -9999 -9999 -9999 -9999 -9999 -9999 -9999 -9999 -9999 -9999 -9999 -9999 -9999 -9999
-9999 -9999 -9999 -9999 -9999 -9999 -9999 -9999 -9999 -9999 -9999 -9999 -9999 -9999 -9999 -9999 -9999 -9999 -9999 -9999 -9999 -9999 -9999 -9999 -9999 -9999 -9999 -9999 -9999 -9999 -9999 -9999 -9999 -9999 -9999 -9999 -9999 -9999 -9999 -9999 -9999 -9999 -9999 -9999 -9999 -9999 -9999 -9999 -9999 -9999 -9999 -9999 -9999 -9999 -9999 -9999 -9999 -9999 -9999 -9999 -9999 -9999 -9999 -9999 -9999 -9999 -9999 -9999 -9999 -9999 -9999 -9999 -9999 -9999 -9999 -9999 -9999 -9999 -9999 -9999 -9999 -9999 -9999 -9999 -9999 577 584 567 540 540 506 490 484 502 494 527 556 567 558 559 586 594 609 612 617 617 596 560 516 469 425 386 360 335 306 266 248 255 274 275 270 270 257 233 220 205 186 166 162 170 188 190 168 171 181 201 232 232 222 209 197 196 198 203 203 211 213 223 231 225 212 201 208 208 215 224 221 205 207 206 196 188 194 194 184 174 164 159 161 161 166 172 180 187 201 218 233 252 269 260 290 296 303 302 275 275 245 212 206 215 215 218 203 191 185 188 196 194 201 216 214 214 221 222 212 203 218 222 218 235 232 212 219 227 220 222 209 209 216 224 212 194 188 185 183 176 162 150 145 145 145 148 150 150 150 150 152 152 152 151 152 151 154 153 153 152 150 150 148 148 149 148 148 147 147 148 147 146 145 146 149 147 144 141 141 141 143 143 143 142 143 146 146 148 150 154 158 166 178 197 227 227 225 233 251 -9999 -9999 -9999 -9999 -9999 -9999 -9999 -9999 -9999 -9999 -9999 -9999 -9999 -9999 -9999 -9999 -9999 -9999 -9999 -9999 -9999 -9999 -9999 -9999 -9999 -9999 -9999 -9999 -9999 -9999 -9999 -9999 -9999 -9999 -9999 -9999 -9999 -9999 -9999 -9999 -9999 -9999 -9999 -9999 -9999 -9999 -9999 -9999 -9999 -9999 -9999 -9999 -9999 -9999 -9999 -9999 -9999 -9999 -9999 -9999 -9999 -9999 -9999 -9999 -9999 -9999 -9999 -9999 -9999 -9999 -9999 -9999 -9999 -9999 -9999 -9999 -9999 -9999 -9999 -9999 -9999 -9999 -9999 -9999 -9999 -9999 -9999 -9999 -9999 -9999 -9999 -9999 -9999 -9999 -9999 -9999 -9999 -9999 -9999
-9999 -9999 -9999 -9999 -9999 -9999 -9999 -9999 -9999 -9999 -9999 -9999 -9999 -9999 -9999 -9999 -9999 -9999 -9999 -9999 -9999 -9999 -9999 -9999 -9999 -9999 -9999 -9999 -9999 -9999 -9999 -9999 -9999 -9999 -9999 -9999 -9999 -9999 -9999 -9999 -9999 -9999 -9999 -9999 -9999 -9999 -9999 -9999 -9999 -9999 -9999 -9999 -9999 -9999 -9999 -9999 -9999 -9999 -9999 -9999 -9999 -9999 -9999 -9999 -9999 -9999 -9999 -9999 -9999 -9999 -9999 -9999 -9999 -9999 -9999 -9999 661 658 658 655 648 639 -9999 620 588 568 549 531 506 506 495 466 451 452 473 507 516 547 524 520 541 561 592 602 616 616 600 562 505 459 418 382 338 310 272 266 247 221 232 260 286 286 277 257 238 225 209 183 166 170 185 188 173 184 187 190 224 224 246 230 212 206 202 204 198 201 210 219 228 234 230 217 214 214 228 243 229 214 216 202 202 201 196 185 179 174 168 162 162 162 173 176 176 185 193 202 218 246 280 307 324 339 338 284 247 247 230 242 234 235 252 230 207 193 199 198 204 201 207 224 237 237 261 251 221 221 215 233 239 250 272 237 247 274 259 236 227 227 237 235 214 202 207 205 194 176 157 147 144 145 149 150 152 152 151 151 153 152 152 152 152 151 151 152 152 153 151 150 149 149 148 148 147 146 146 146 147 146 147 145 145 145 145 143 142 142 142 141 142 144 143 144 145 147 149 152 156 168 186 213 250 250 271 264 -9999 -9999 -9999 -9999 -9999 -9999 -9999 -9999 -9999 -9999 -9999 -9999 -9999 -9999 -9999 -9999 -9999 -9999 -9999 -9999 -9999 -9999 -9999 -9999 -9999 -9999 -9999 -9999 -9999 -9999 -9999 -9999 -9999 -9999 -9999 -9999 -9999 -9999 -9999 -9999 -9999 -9999 -9999 -9999 -9999 -9999 -9999 -9999 -9999 -9999 -9999 -9999 -9999 -9999 -9999 -9999 -9999 -9999 -9999 -9999 -9999 -9999 -9999 -9999 -9999 -9999 -9999 -9999 -9999 -9999 -9999 -9999 -9999 -9999 -9999 -9999 -9999 -9999 -9999 -9999 -9999 -9999 -9999 -9999 -9999 -9999 -9999 -9999 -9999 -9999 -9999 -9999 -9999 -9999 -9999 -9999 -9999 -9999 -9999 -9999
-9999 -9999 -9999 -9999 -9999 -9999 -9999 -9999 -9999 -9999 -9999 -9999 -9999 -9999 -9999 -9999 -9999 -9999 -9999 -9999 -9999 -9999 -9999 -9999 -9999 -9999 -9999 -9999 -9999 -9999 -9999 -9999 -9999 -9999 -9999 -9999 -9999 -9999 -9999 -9999 -9999 -9999 -9999 -9999 -9999 -9999 -9999 -9999 -9999 -9999 -9999 -9999 -9999 -9999 -9999 -9999 -9999 -9999 -9999 -9999 -9999 -9999 -9999 -9999 -9999 -9999 -9999 -9999 -9999 -9999 -9999 -9999 -9999 -9999 -9999 672 648 617 608 599 594 602 626 586 545 526 486 489 470 470 463 441 427 437 462 461 472 490 485 495 525 544 558 578 589 589 582 548 507 470 447 396 364 340 325 308 261 224 211 218 222 222 218 207 202 202 196 181 171 170 188 193 186 192 200 196 203 203 219 227 229 225 219 217 205 204 212 222 229 237 246 239 230 230 231 246 231 236 223 210 215 208 200 192 185 173 166 162 164 164 179 195 186 190 200 224 235 237 244 271 301 334 333 309 287 287 257 290 266 253 286 246 221 207 218 217 214 214 212 236 256 256 275 265 229 247 233 236 248 266 292 264 269 304 301 259 267 267 279 269 238 222 202 186 177 164 149 145 145 146 149 149 151 151 154 153 155 154 153 153 153 153 151 151 150 150 150 148 147 147 148 149 147 147 146 145 145 147 147 146 146 145 144 144 143 143 143 142 141 142 143 145 146 147 150 154 158 163 172 186 213 213 260 294 -9999 -9999 -9999 -9999 -9999 -9999 -9999 -9999 -9999 -9999 -9999 -9999 -9999 -9999 -9999 -9999 -9999 -9999 -9999 -9999 -9999 -9999 -9999 -9999 -9999 -9999 -9999 -9999 -9999 -9999 -9999 -9999 -9999 -9999 -9999 -9999 -9999 -9999 -9999 -9999 -9999 -9999 -9999 -9999 -9999 -9999 -9999 -9999 -9999 -9999 -9999 -9999 -9999 -9999 -9999 -9999 -9999 -9999 -9999 -9999 -9999 -9999 -9999 -9999 -9999 -9999 -9999 -9999 -9999 -9999 -9999 -9999 -9999 -9999 -9999 -9999 -9999 -9999 -9999 -9999 -9999 -9999 -9999 -9999 -9999 -9999 -9999 -9999 -9999 -9999 -9999 -9999 -9999 -9999 -9999 -9999 -9999 -9999 -9999 -9999
-9999 -9999 -9999 -9999 -9999 -9999 -9999 -9999 -9999 -9999 -9999 -9999 -9999 -9999 -9999 -9999 -9999 -9999 -9999 -9999 -9999 -9999 -9999 -9999 -9999 -9999 -9999 -9999 -9999 -9999 -9999 -9999 -9999 -9999 -9999 -9999 -9999 -9999 -9999 -9999 -9999 -9999 -9999 -9999 -9999 -9999 -9999 -9999 -9999 -9999 -9999 -9999 -9999 -9999 -9999 -9999 -9999 -9999 -9999 -9999 -9999 -9999 -9999 -9999 -9999 -9999 -9999 -9999 -9999 -9999 -9999 -9999 -9999 -9999 -9999 -9999 -9999 -9999 637 607 575 557 558 537 501 491 470 455 446 446 442 420 441 460 484 491 489 485 498 508 519 543 559 568 586 586 597 582 542 483 454 421 397 379 361 317 258 222 203 194 183 183 179 178 175 174 171 166 166 180 209 221 204 210 223 212 195 195 198 207 225 241 244 232 217 207 210 224 228 243 255 253 248 248 249 250 251 246 235 230 224 219 196 183 176 171 164 162 167 167 182 201 199 199 210 220 241 259 274 292 324 362 357 354 318 318 315 324 304 292 289 258 236 223 228 229 240 244 228 236 255 255 272 260 249 256 252 267 267 281 315 297 314 347 333 323 334 334 333 299 248 220 199 184 169 158 147 145 146 146 150 149 151 151 155 155 154 153 152 152 152 153 151 150 149 149 149 149 148 148 147 148 147 147 147 147 147 147 148 147 146 146 145 143 143 143 143 142 142 142 143 145 146 148 150 151 155 161 170 186 222 222 268 303 -9999 -9999 -9999 -9999 -9999 -9999 -9999 -9999 -9999 -9999 -9999 -9999 -9999 -9999 -9999 -9999 -9999 -9999 -9999 -9999 -9999 -9999 -9999 -9999 -9999 -9999 -9999 -9999 -9999 -9999 -9999 -9999 -9999 -9999 -9999 -9999 -9999 -9999 -9999 -9999 -9999 -9999 -9999 -9999 -9999 -9999 -9999 -9999 -9999 -9999 -9999 -9999 -9999 -9999 -9999 -9999 -9999 -9999 -9999 -9999 -9999 -9999 -9999 -9999 -9999 -9999 -9999 -9999 -9999 -9999 -9999 -9999 -9999 -9999 -9999 -9999 -9999 -9999 -9999 -9999 -9999 -9999 -9999 -9999 -9999 -9999 -9999 -9999 -9999 -9999 -9999 -9999 -9999 -9999 -9999 -9999 -9999 -9999 -9999 -9999
-9999 -9999 -9999 -9999 -9999 -9999 -9999 -9999 -9999 -9999 -9999 -9999 -9999 -9999 -9999 -9999 -9999 -9999 -9999 -9999 -9999 -9999 -9999 -9999 -9999 -9999 -9999 -9999 -9999 -9999 -9999 -9999 -9999 -9999 -9999 -9999 -9999 -9999 -9999 -9999 -9999 -9999 -9999 -9999 -9999 -9999 -9999 -9999 -9999 -9999 -9999 -9999 -9999 -9999 -9999 -9999 -9999 -9999 -9999 -9999 -9999 -9999 -9999 -9999 -9999 -9999 -9999 -9999 -9999 -9999 -9999 -9999 -9999 -9999 -9999 -9999 -9999 -9999 -9999 642 611 584 579 573 555 525 493 475 471 471 464 443 424 431 475 517 508 500 517 538 550 540 530 545 556 556 547 527 508 464 410 377 344 319 302 281 249 210 196 196 193 193 183 174 168 166 165 165 176 212 238 236 231 241 238 217 213 213 207 208 229 246 252 245 230 213 226 220 217 223 232 232 241 241 246 253 261 258 242 227 212 203 192 193 188 175 169 163 174 174 207 232 232 216 226 250 274 289 313 298 306 315 306 322 313 313 315 317 309 318 322 299 255 247 247 249 255 267 249 243 261 261 285 276 270 283 282 301 322 327 337 328 341 337 332 350 352 352 328 286 262 220 196 178 163 152 148 146 146 149 154 154 152 152 156 155 154 154 152 151 152 150 150 150 151 151 150 149 149 149 148 149 146 145 147 147 147 147 147 147 145 145 145 143 142 142 142 144 143 143 144 144 145 146 148 150 153 160 174 208 260 260 309 350 -9999 -9999 -9999 -9999 -9999 -9999 -9999 -9999 -9999 -9999 -9999 -9999 -9999 -9999 -9999 -9999 -9999 -9999 -9999 -9999 -9999 -9999 -9999 -9999 -9999 -9999 -9999 -9999 -9999 -9999 -9999 -9999 -9999 -9999 -9999 -9999 -9999 -9999 -9999 -9999 -9999 -9999 -9999 -9999 -9999 -9999 -9999 -9999 -9999 -9999 -9999 -9999 -9999 -9999 -9999 -9999 -9999 -9999 -9999 -9999 -9999 -9999 -9999 -9999 -9999 -9999 -9999 -9999 -9999 -9999 -9999 -9999 -9999 -9999 -9999 -9999 -9999 -9999 -9999 -9999 -9999 -9999 -9999 -9999 -9999 -9999 -9999 -9999 -9999 -9999 -9999 -9999 -9999 -9999 -9999 -9999 -9999 -9999 -9999 -9999
-9999 -9999 -9999 -9999 -9999 -9999 -9999 -9999 -9999 -9999 -9999 -9999 -9999 -9999 -9999 -9999 -9999 -9999 -9999 -9999 -9999 -9999 -9999 -9999 -9999 -9999 -9999 -9999 -9999 -9999 -9999 -9999 -9999 -9999 -9999 -9999 -9999 -9999 -9999 -9999 -9999 -9999 -9999 -9999 -9999 -9999 -9999 -9999 -9999 -9999 -9999 -9999 -9999 -9999 -9999 -9999 -9999 -9999 -9999 -9999 -9999 -9999 -9999 -9999 -9999 -9999 -9999 -9999 -9999 -9999 -9999 -9999 -9999 -9999 -9999 -9999 -9999 -9999 -9999 -9999 647 641 654 645 604 559 516 480 465 465 469 466 445 404 442 474 468 495 515 517 531 535 496 488 520 520 519 485 451 441 428 396 355 313 281 244 220 201 201 207 205 205 190 182 173 167 163 164 172 208 254 277 276 263 244 240 234 234 226 221 218 225 240 253 239 221 234 237 232 234 224 225 222 222 229 237 259 271 268 249 234 220 213 211 194 179 173 165 176 176 210 260 284 275 248 257 275 280 281 260 266 283 262 284 271 271 270 277 268 279 279 287 293 292 283 288 282 287 280 273 274 274 298 304 314 341 351 367 379 353 322 303 303 279 276 296 288 288 279 245 233 207 182 169 158 149 148 146 148 153 154 153 154 154 154 154 152 153 151 153 152 151 150 150 151 152 150 150 149 149 150 148 147 147 148 146 148 148 148 145 145 145 146 144 142 142 142 143 143 144 144 144 145 146 147 149 154 163 178 210 246 246 300 366 -9999 -9999 -9999 -9999 -9999 -9999 -9999 -9999 -9999 -9999 -9999 -9999 -9999 -9999 -9999 -9999 -9999 -9999 -9999 -9999 -9999 -9999 -9999 -9999 -9999 -9999 -9999 -9999 -9999 -9999 -9999 -9999 -9999 -9999 -9999 -9999 -9999 -9999 -9999 -9999 -9999 -9999 -9999 -9999 -9999 -9999 -9999 -9999 -9999 -9999 -9999 -9999 -9999 -9999 -9999 -9999 -9999 -9999 -9999 -9999 -9999 -9999 -9999 -9999 -9999 -9999 -9999 -9999 -9999 -9999 -9999 -9999 -9999 -9999 -9999 -9999 -9999 -9999 -9999 -9999 -9999 -9999 -9999 -9999 -9999 -9999 -9999 -9999 -9999 -9999 -9999 -9999 -9999 -9999 -9999 -9999 -9999 -9999 -9999 -9999
-9999 -9999 -9999 -9999 -9999 -9999 -9999 -9999 -9999 -9999 -9999 -9999 -9999 -9999 -9999 -9999 -9999 -9999 -9999 -9999 -9999 -9999 -9999 -9999 -9999 -9999 -9999 -9999 -9999 -9999 -9999 -9999 -9999 -9999 -9999 -9999 -9999 -9999 -9999 -9999 -9999 -9999 -9999 -9999 -9999 -9999 -9999 -9999 -9999 -9999 -9999 -9999 -9999 -9999 -9999 -9999 -9999 -9999 -9999 -9999 -9999 -9999 -9999 -9999 -9999 -9999 -9999 -9999 -9999 -9999 -9999 -9999 -9999 -9999 -9999 -9999 -9999 -9999 -9999 -9999 -9999 653 621 604 563 545 504 473 457 457 460 460 434 398 405 421 450 487 476 471 486 486 454 431 457 457 469 453 418 384 397 396 379 328 279 232 210 212 223 236 232 232 223 202 182 173 169 164 165 178 231 263 252 240 238 240 242 242 247 241 234 229 230 245 251 240 231 247 253 243 238 233 232 232 233 230 248 261 275 282 276 260 262 262 220 198 176 166 175 175 188 224 269 309 300 291 288 269 239 232 256 257 238 262 266 266 242 246 247 243 247 263 289 313 313 304 298 309 301 278 269 269 295 349 375 390 379 358 337 308 274 269 257 232 227 236 243 243 239 209 204 203 192 181 157 147 146 148 155 156 152 152 155 155 154 154 153 152 152 152 153 151 152 150 149 151 150 149 149 149 148 149 148 148 147 147 147 149 147 145 146 145 144 144 143 143 143 143 144 143 144 145 145 147 149 152 157 164 175 188 217 217 258 309 -9999 -9999 -9999 -9999 -9999 -9999 -9999 -9999 -9999 -9999 -9999 -9999 -9999 -9999 -9999 -9999 -9999 -9999 -9999 -9999 -9999 -9999 -9999 -9999 -9999 -9999 -9999 -9999 -9999 -9999 -9999 -9999 -9999 -9999 -9999 -9999 -9999 -9999 -9999 -9999 -9999 -9999 -9999 -9999 -9999 -9999 -9999 -9999 -9999 -9999 -9999 -9999 -9999 -9999 -9999 -9999 -9999 -9999 -9999 -9999 -9999 -9999 -9999 -9999 -9999 -9999 -9999 -9999 -9999 -9999 -9999 -9999 -9999 -9999 -9999 -9999 -9999 -9999 -9999 -9999 -9999 -9999 -9999 -9999 -9999 -9999 -9999 -9999 -9999 -9999 -9999 -9999 -9999 -9999 -9999 -9999 -9999 -9999 -9999 -9999
-9999 -9999 -9999 -9999 -9999 -9999 -9999 -9999 -9999 -9999 -9999 -9999 -9999 -9999 -9999 -9999 -9999 -9999 -9999 -9999 -9999 -9999 -9999 -9999 -9999 -9999 -9999 -9999 -9999 -9999 -9999 -9999 -9999 -9999 -9999 -9999 -9999 -9999 -9999 -9999 -9999 -9999 -9999 -9999 -9999 -9999 -9999 -9999 -9999 -9999 -9999 -9999 -9999 -9999 -9999 -9999 -9999 -9999 -9999 -9999 -9999 -9999 -9999 -9999 -9999 -9999 -9999 -9999 -9999 -9999 -9999 -9999 -9999 -9999 -9999 -9999 -9999 -9999 -9999 -9999 -9999 595 561 537 515 503 473 452 457 457 424 437 448 409 404 428 430 436 436 455 463 444 414 378 376 376 388 377 352 326 321 320 316 290 235 218 221 228 229 242 258 258 257 219 191 193 190 180 174 167 180 202 200 203 220 231 243 243 254 261 254 251 245 242 255 256 247 253 264 263 254 241 246 246 248 235 233 250 264 270 273 275 285 285 275 226 179 167 171 171 180 195 222 258 271 246 236 228 214 221 226 232 222 234 257 257 246 227 230 226 251 279 293 284 288 284 279 283 272 245 255 255 298 330 319 324 331 303 273 249 234 244 232 207 195 217 221 221 211 191 186 196 185 168 153 149 147 149 158 156 156 155 155 155 154 154 154 153 153 153 153 153 152 152 151 151 149 150 148 148 149 147 148 147 148 148 147 148 146 147 148 145 143 143 144 144 145 144 143 144 145 144 145 146 147 152 155 161 168 176 196 196 244 256 -9999 -9999 -9999 -9999 -9999 -9999 -9999 -9999 -9999 -9999 -9999 -9999 -9999 -9999 -9999 -9999 -9999 -9999 -9999 -9999 -9999 -9999 -9999 -9999 -9999 -9999 -9999 -9999 -9999 -9999 -9999 -9999 -9999 -9999 -9999 -9999 -9999 -9999 -9999 -9999 -9999 -9999 -9999 -9999 -9999 -9999 -9999 -9999 -9999 -9999 -9999 -9999 -9999 -9999 -9999 -9999 -9999 -9999 -9999 -9999 -9999 -9999 -9999 -9999 -9999 -9999 -9999 -9999 -9999 -9999 -9999 -9999 -9999 -9999 -9999 -9999 -9999 -9999 -9999 -9999 -9999 -9999 -9999 -9999 -9999 -9999 -9999 -9999 -9999 -9999 -9999 -9999 -9999 -9999 -9999 -9999 -9999 -9999 -9999 -9999
-9999 -9999 -9999 -9999 -9999 -9999 -9999 -9999 -9999 -9999 -9999 -9999 -9999 -9999 -9999 -9999 -9999 -9999 -9999 -9999 -9999 -9999 -9999 -9999 -9999 -9999 -9999 -9999 -9999 -9999 -9999 -9999 -9999 -9999 -9999 -9999 -9999 -9999 -9999 -9999 -9999 -9999 -9999 -9999 -9999 -9999 -9999 -9999 -9999 -9999 -9999 -9999 -9999 -9999 -9999 -9999 -9999 -9999 -9999 -9999 -9999 -9999 -9999 -9999 -9999 -9999 -9999 -9999 -9999 -9999 -9999 -9999 -9999 -9999 -9999 -9999 -9999 -9999 -9999 -9999 -9999 558 521 512 497 477 446 427 437 437 412 415 431 393 397 413 432 447 443 443 456 455 422 373 358 358 340 327 311 301 290 273 262 249 232 244 253 264 262 272 274 274 256 224 209 227 224 212 206 185 169 167 174 188 206 214 223 223 238 256 264 264 261 264 268 268 262 266 273 279 261 261 260 260 254 244 243 237 245 250 256 259 245 234 234 203 173 168 178 178 185 191 207 237 228 209 197 193 194 194 198 206 209 223 228 228 238 223 212 225 252 259 258 251 254 250 256 252 249 221 245 245 271 274 256 256 264 256 226 209 222 222 212 201 183 194 189 189 191 186 173 172 169 159 151 148 147 150 155 157 155 154 155 155 156 156 156 156 156 155 154 154 154 153 153 151 151 150 150 150 149 149 147 149 148 148 148 147 146 147 146 145 144 144 144 144 145 144 144 144 144 145 145 146 147 149 152 157 163 167 173 173 186 198 -9999 -9999 -9999 -9999 -9999 -9999 -9999 -9999 -9999 -9999 -9999 -9999 -9999 -9999 -9999 -9999 -9999 -9999 -9999 -9999 -9999 -9999 -9999 -9999 -9999 -9999 -9999 -9999 -9999 -9999 -9999 -9999 -9999 -9999 -9999 -9999 -9999 -9999 -9999 -9999 -9999 -9999 -9999 -9999 -9999 -9999 -9999 -9999 -9999 -9999 -9999 -9999 -9999 -9999 -9999 -9999 -9999 -9999 -9999 -9999 -9999 -9999 -9999 -9999 -9999 -9999 -9999 -9999 -9999 -9999 -9999 -9999 -9999 -9999 -9999 -9999 -9999 -9999 -9999 -9999 -9999 -9999 -9999 -9999 -9999 -9999 -9999 -9999 -9999 -9999 -9999 -9999 -9999 -9999 -9999 -9999 -9999 -9999 -9999 -9999
-9999 -9999 -9999 -9999 -9999 -9999 -9999 -9999 -9999 -9999 -9999 -9999 -9999 -9999 -9999 -9999 -9999 -9999 -9999 -9999 -9999 -9999 -9999 -9999 -9999 -9999 -9999 -9999 -9999 -9999 -9999 -9999 -9999 -9999 -9999 -9999 -9999 -9999 -9999 -9999 -9999 -9999 -9999 -9999 -9999 -9999 -9999 -9999 -9999 -9999 -9999 -9999 -9999 -9999 -9999 -9999 -9999 -9999 -9999 -9999 -9999 -9999 -9999 -9999 -9999 -9999 -9999 -9999 -9999 -9999 -9999 -9999 -9999 -9999 -9999 -9999 -9999 -9999 -9999 -9999 572 558 521 512 497 477 446 427 437 437 412 415 431 393 397 413 432 447 443 443 456 455 422 373 358 358 340 327 311 301 290 273 262 249 232 244 253 264 262 272 274 274 256 224 209 227 224 212 206 185 169 167 174 188 206 214 223 223 238 256 264 264 261 264 268 268 262 266 273 279 261 261 260 260 254 244 243 237 245 250 256 259 245 234 234 203 173 168 178 178 185 191 207 237 228 209 197 193 194 194 198 206 209 223 228 228 238 223 212 225 252 259 258 251 254 250 256 252 249 221 245 245 271 274 256 256 264 256 226 209 222 222 212 201 183 194 189 189 191 186 173 172 169 159 151 148 147 150 155 157 155 154 155 155 156 156 156 156 156 155 154 154 154 153 153 151 151 150 150 150 149 149 147 149 148 148 148 147 146 147 146 145 144 144 144 144 145 144 144 144 144 145 145 146 147 149 152 157 163 167 173 173 186 198 -9999 -9999 -9999 -9999 -9999 -9999 -9999 -9999 -9999 -9999 -9999 -9999 -9999 -9999 -9999 -9999 -9999 -9999 -9999 -9999 -9999 -9999 -9999 -9999 -9999 -9999 -9999 -9999 -9999 -9999 -9999 -9999 -9999 -9999 -9999 -9999 -9999 -9999 -9999 -9999 -9999 -9999 -9999 -9999 -9999 -9999 -9999 -9999 -9999 -9999 -9999 -9999 -9999 -9999 -9999 -9999 -9999 -9999 -9999 -9999 -9999 -9999 -9999 -9999 -9999 -9999 -9999 -9999 -9999 -9999 -9999 -9999 -9999 -9999 -9999 -9999 -9999 -9999 -9999 -9999 -9999 -9999 -9999 -9999 -9999 -9999 -9999 -9999 -9999 -9999 -9999 -9999 -9999 -9999 -9999 -9999 -9999 -9999 -9999 -9999
-9999 -9999 -9999 -9999 -9999 -9999 -9999 -9999 -9999 -9999 -9999 -9999 -9999 -9999 -9999 -9999 -9999 -9999 -9999 -9999 -9999 -9999 -9999 -9999 -9999 -9999 -9999 -9999 -9999 -9999 -9999 -9999 -9999 -9999 -9999 -9999 -9999 -9999 -9999 -9999 -9999 -9999 -9999 -9999 -9999 -9999 -9999 -9999 -9999 -9999 -9999 -9999 -9999 -9999 -9999 -9999 -9999 -9999 -9999 -9999 -9999 -9999 -9999 -9999 -9999 -9999 -9999 -9999 -9999 -9999 -9999 -9999 -9999 -9999 -9999 -9999 -9999 -9999 -9999 -9999 551 529 505 484 474 470 441 421 398 398 385 406 409 380 413 445 468 471 469 454 459 446 431 418 403 403 358 342 340 329 323 308 291 265 251 278 299 307 321 331 316 316 284 262 248 254 246 241 235 200 173 166 168 175 192 219 238 238 256 256 241 243 248 259 268 275 277 277 281 285 281 285 277 277 263 257 253 245 250 256 267 272 248 212 191 180 176 173 184 184 212 217 222 233 206 186 184 185 186 187 187 190 197 207 211 211 215 209 208 217 233 234 226 221 226 224 234 226 235 205 220 220 219 214 209 209 204 212 196 193 198 193 187 177 169 168 171 171 171 171 161 157 152 150 149 149 148 153 160 159 157 157 158 158 158 156 158 161 158 157 157 156 155 154 154 153 152 150 150 150 149 149 149 148 148 148 147 147 147 146 146 145 145 145 144 144 144 145 144 145 145 144 145 146 148 151 151 153 155 157 158 158 161 167 -9999 -9999 -9999 -9999 -9999 -9999 -9999 -9999 -9999 -9999 -9999 -9999 -9999 -9999 -9999 -9999 -9999 -9999 -9999 -9999 -9999 -9999 -9999 -9999 -9999 -9999 -9999 -9999 -9999 -9999 -9999 -9999 -9999 -9999 -9999 -9999 -9999 -9999 -9999 -9999 -9999 -9999 -9999 -9999 -9999 -9999 -9999 -9999 -9999 -9999 -9999 -9999 -9999 -9999 -9999 -9999 -9999 -9999 -9999 -9999 -9999 -9999 -9999 -9999 -9999 -9999 -9999 -9999 -9999 -9999 -9999 -9999 -9999 -9999 -9999 -9999 -9999 -9999 -9999 -9999 -9999 -9999 -9999 -9999 -9999 -9999 -9999 -9999 -9999 -9999 -9999 -9999 -9999 -9999 -9999 -9999 -9999 -9999 -9999 -9999
-9999 -9999 -9999 -9999 -9999 -9999 -9999 -9999 -9999 -9999 -9999 -9999 -9999 -9999 -9999 -9999 -9999 -9999 -9999 -9999 -9999 -9999 -9999 -9999 -9999 -9999 -9999 -9999 -9999 -9999 -9999 -9999 -9999 -9999 -9999 -9999 -9999 -9999 -9999 -9999 -9999 -9999 -9999 -9999 -9999 -9999 -9999 -9999 -9999 -9999 -9999 -9999 -9999 -9999 -9999 -9999 -9999 -9999 -9999 -9999 -9999 -9999 -9999 -9999 -9999 -9999 -9999 -9999 -9999 -9999 -9999 -9999 -9999 -9999 -9999 -9999 -9999 -9999 -9999 569 550 508 475 457 451 437 443 414 397 397 380 367 380 381 433 469 493 492 485 474 476 484 489 481 449 449 419 412 386 375 361 341 299 269 277 305 320 345 371 368 346 346 332 309 275 249 228 223 221 192 172 167 170 173 177 186 204 204 227 230 224 234 249 271 279 279 277 281 287 295 295 297 287 287 274 279 267 253 263 263 279 296 267 219 194 184 182 182 178 178 206 219 216 221 200 184 185 188 190 191 191 188 189 193 197 197 198 198 202 206 211 211 209 209 205 207 203 205 209 193 192 192 185 180 179 176 174 175 171 169 167 168 161 162 159 157 157 157 158 157 154 153 152 151 150 149 152 161 166 164 164 159 158 158 159 159 161 162 164 162 160 158 157 156 155 154 153 152 151 151 151 151 150 149 148 147 147 147 147 147 146 144 145 146 144 144 145 144 145 145 145 145 145 145 149 153 152 149 151 151 152 152 153 156 -9999 -9999 -9999 -9999 -9999 -9999 -9999 -9999 -9999 -9999 -9999 -9999 -9999 -9999 -9999 -9999 -9999 -9999 -9999 -9999 -9999 -9999 -9999 -9999 -9999 -9999 -9999 -9999 -9999 -9999 -9999 -9999 -9999 -9999 -9999 -9999 -9999 -9999 -9999 -9999 -9999 -9999 -9999 -9999 -9999 -9999 -9999 -9999 -9999 -9999 -9999 -9999 -9999 -9999 -9999 -9999 -9999 -9999 -9999 -9999 -9999 -9999 -9999 -9999 -9999 -9999 -9999 -9999 -9999 -9999 -9999 -9999 -9999 -9999 -9999 -9999 -9999 -9999 -9999 -9999 -9999 -9999 -9999 -9999 -9999 -9999 -9999 -9999 -9999 -9999 -9999 -9999 -9999 -9999 -9999 -9999 -9999 -9999 -9999 -9999
-9999 -9999 -9999 -9999 -9999 -9999 -9999 -9999 -9999 -9999 -9999 -9999 -9999 -9999 -9999 -9999 -9999 -9999 -9999 -9999 -9999 -9999 -9999 -9999 -9999 -9999 -9999 -9999 -9999 -9999 -9999 -9999 -9999 -9999 -9999 -9999 -9999 -9999 -9999 -9999 -9999 -9999 -9999 -9999 -9999 -9999 -9999 -9999 -9999 -9999 -9999 -9999 -9999 -9999 -9999 -9999 -9999 -9999 -9999 -9999 -9999 -9999 -9999 -9999 -9999 -9999 -9999 -9999 -9999 -9999 -9999 -9999 -9999 -9999 -9999 -9999 -9999 -9999 566 562 539 497 466 446 415 436 452 430 417 417 389 354 370 393 432 452 467 491 488 497 505 500 521 524 495 495 461 424 392 360 335 317 294 277 301 340 371 389 394 389 386 386 360 310 278 264 253 223 203 190 174 166 172 184 194 192 199 199 201 207 215 236 256 273 274 272 272 271 279 285 290 298 294 294 288 288 277 263 260 268 276 269 239 208 196 191 186 188 181 181 177 178 181 181 183 183 188 190 192 195 193 191 191 191 192 192 193 194 195 197 205 209 205 200 195 194 192 189 187 181 178 178 176 176 179 178 176 176 173 170 167 167 166 165 162 158 155 155 155 154 154 152 151 150 150 149 154 163 172 174 177 170 163 163 161 162 164 169 178 168 163 161 161 160 159 157 156 155 154 154 152 152 152 149 148 148 146 147 147 147 147 145 145 145 146 146 146 145 144 144 145 145 145 146 146 148 148 148 148 149 150 150 150 151 -9999 -9999 -9999 -9999 -9999 -9999 -9999 -9999 -9999 -9999 -9999 -9999 -9999 -9999 -9999 -9999 -9999 -9999 -9999 -9999 -9999 -9999 -9999 -9999 -9999 -9999 -9999 -9999 -9999 -9999 -9999 -9999 -9999 -9999 -9999 -9999 -9999 -9999 -9999 -9999 -9999 -9999 -9999 -9999 -9999 -9999 -9999 -9999 -9999 -9999 -9999 -9999 -9999 -9999 -9999 -9999 -9999 -9999 -9999 -9999 -9999 -9999 -9999 -9999 -9999 -9999 -9999 -9999 -9999 -9999 -9999 -9999 -9999 -9999 -9999 -9999 -9999 -9999 -9999 -9999 -9999 -9999 -9999 -9999 -9999 -9999 -9999 -9999 -9999 -9999 -9999 -9999 -9999 -9999 -9999 -9999 -9999 -9999 -9999 -9999
